15 15 16 16 16 16 16 16 16 16 17 17 17 18 18 18 18 18 19 19 19 19 19 19 20 20 20 20 20 20 20 21 21 21 21 21 21 21 21 21 21 21 22 22 22 22 22 22 22 22 22 22 22 22 22 22 22 22 22 22 22 22 22 22 22 22 22 23 23 23 23 23 23 23 23 23 23 23 23 23 23 23 23 23 24 24 24 24 24 24 24 25 25 25 25 25 25 25 25 25 25 25 24 24 24 24 24 24 24 24 24 24 24 24 24 24 24 24 24 24 24 24 24 24 24 24 24 24 24 24 24 24 24 24 24 24 24 24 24 24 24 24 24 24 24 24 24 24 24 24 24 24 24 24 24 24 24 24 24 24 24 24 24 24 24 24 24 24 24 24 24 24 24 24 24 24 24 25 25 25 25 25 25 25 25 25 25 25 25 25 25 25 25 25 25 25 25 25 25 25 26 26 26 26 26 26 26 26 26 26 26 26 26 26 26 26 27 27 27 27 27 27 27 27 27 27 27 27 27 27 27 27 27 27 26 26 26 27 27 28 28 28 28 28 28 28 28 28 28 28 28 28 28 28 28 28 28 28 28 28 28 28 28 28 29 29 29 29 29 29 29 30 31 32 33 34 35 36 36 36 37 37 37 37 37 37 36 36 36 36 36 36 35 35 35 34 34 34 33 33 33 33 32 32 32 32 32 32 32 32 31 31 31 31 31 31 31 31 31 31 31 32 32 32 32 33 33 34 34 35 35 35 36 36 36 38 39 41 42 43 43 43 42 42 42 42 42 42 42 42 42 42 42 42 42 41 41 41 40 40 40 40 40 40 40 40 40 41 41 41 41 41 41 42 42 42 42 42 43 43 43 43 43 43 43 43 43 43 43 43 43 43 43 43 42 42 42 42 42 42 43 43 43 43 43 43 44 44 43 43 43 43 43 43 43 43 43 43 43 43 43 43 44 44 45 45 46 46 46 46 46 46 47 47 47 47 47 47 47 47 47 47 47 47 47 47 47 47 47 47 47 48 48 48 49 49 49 49 49 49 49 49 49 49 49 49 49 50 50 50 51 51 51 51 51 50 50 49 47 46 44 43 42 42 41 41 40 39 38 37 36 35 35 34 34 33 33 33 32 32 32 32 31 31 31 31 31 30 30 30 30 30 30 30 29 29 29 29 29 29 29 29 29 30 30 30 30 30 30 30 31 31 31 30 30 30 30 30 30 30 29 29 28 28 28 27 27 27 27 27 26 26 26 26 26 25 25 25 25 25 25 24 24 24 24 24 24 24 24 24 24 23 23 23 23 23 23 23 23 23 23 23 23 23 23 23 23 23 23 23 23 23 23 23 23 23 23 23 23 23 23 23 23 22 22 22 22 22 22 22 22 22 22 22 21 21 21 21 21 21 21 21 21 21 21 21 21 21 21 20 20 20 20 20 20 20 20 20 20 20 20 20 20 20 20 20 20 19 19 19 19 18 16 15 13 12 12 12 12 12 12 12 12 12 12 12 12 12 12 12 12 12 12 12 12 12 11 11 11 11 12 12 12 12 14 15 15 16 16 17 17 17 17 18 18 18 18 18 19 19 19 19 19 19 20 20 20 20 21 21 22 23 25 26 27 28 28 29 30 30 31 31 32 33 33 34 34 34 34 34 33 33 32 32 30 29 27 26 25 24 23 21 20 20 20 19 19 19 20 20 20 20 20 20 20 21 21 21 21 21 21 21 21 21 21 21 21 21 21 21 21 21 21 21 21 21 21 21 21 21 21 21 21 21 21 21 22 22 22 22 22 22 22 22 22 22 22 22 22 22 22 22 22 22 22 22 21 21 21 21 21 21 21 21 21 21 21 21 21 21 21 21 21 21 21 21 22 22 22 22 22 22 22 22 22 22 23 23 23 23 23 23 23 24 23 23 23 23 23 23 23 23 22 21 21 20 20 20 20 20 20 19 19 19 19 19 19 19 19 19 19 19 19 19 18 18 18 18 18 18 18 18 18 18 18 18 18 18 18 18 18 18 18 17 17 17 17 17 17 17 17 17 17 17 17 17 17 17 17 17 17 17 17 16 16 16 16 16 16 16 16 16 17 17 17 17 17 17 17 17 17 17 16 16 16 16 16 16 16 16 16 16 16 16 16 16 16 16 16 16 16 16 16 16 16 16 16 16 16 16 16 16 16 16 16 16 16 16 16 16 16 16 16 16 16 16 16 16 16 16 16 16 16 16 16 16 16 16 16 16 16 16 15 15 15 15 15 15 15 15 15 15 15 15 15 14 14 14 14 14 13 13 13 13 13 13 13 13 13 14.075872
15 15 16 16 16 16 16 16 16 16 17 17 17 18 18 18 18 19 19 19 19 19 19 19 20 20 20 20 20 20 20 21 21 21 21 21 21 21 21 21 21 21 22 22 22 22 22 22 22 22 22 22 22 22 22 22 22 22 22 22 22 22 22 22 22 22 22 23 23 23 23 23 23 23 23 23 23 23 23 23 23 23 23 23 24 24 24 24 24 24 24 24 25 25 25 25 25 25 25 25 25 25 24 24 24 24 24 24 24 24 24 24 24 24 24 24 24 24 24 24 24 24 24 24 24 24 24 24 24 24 24 24 24 24 24 24 24 24 24 24 24 24 24 24 24 24 24 24 24 24 24 24 24 24 24 24 24 24 24 24 24 24 24 24 24 24 24 24 24 24 24 24 24 24 24 25 25 25 25 25 25 25 25 25 25 25 25 25 25 25 25 25 25 25 25 25 25 25 25 25 25 26 26 26 26 26 26 26 26 26 26 26 26 26 26 26 27 27 27 27 27 27 27 27 27 27 27 27 27 27 27 27 27 27 26 26 26 27 27 28 28 28 28 28 28 28 28 28 28 28 28 28 28 28 28 28 28 28 28 28 28 28 28 28 28 28 28 29 29 29 29 29 30 31 32 34 35 35 36 36 36 37 37 37 37 37 36 36 36 36 36 36 35 35 35 34 34 34 33 33 33 33 32 32 32 32 32 32 32 32 32 32 31 31 31 31 31 31 31 31 31 31 32 32 32 33 33 34 34 34 35 35 36 36 36 36 38 40 42 43 43 43 42 42 42 42 42 42 42 42 42 42 42 42 42 41 41 41 41 40 40 40 40 40 40 40 41 41 41 41 41 41 41 42 42 42 42 42 43 43 43 43 43 43 43 43 43 43 43 43 43 43 43 43 42 42 42 42 42 43 43 43 43 43 44 44 44 44 44 43 43 43 43 43 43 43 43 43 43 43 43 43 44 44 45 45 46 46 46 46 46 46 47 47 47 47 47 47 47 47 47 47 48 48 48 47 47 47 47 47 47 48 48 48 49 49 49 49 49 49 49 49 49 49 49 49 49 50 50 51 51 51 51 51 51 51 50 49 48 46 45 44 43 42 42 41 40 39 38 37 36 35 34 34 33 33 33 32 32 32 31 31 31 31 31 30 30 30 30 30 29 29 29 28 28 27 27 27 27 27 27 27 27 28 28 28 28 29 29 29 29 29 30 30 30 30 30 29 29 29 29 29 28 28 28 27 27 27 27 27 26 26 26 26 26 26 25 25 25 25 25 25 24 24 24 24 24 24 24 24 24 24 24 23 23 23 23 23 23 23 23 23 23 23 23 23 23 23 23 23 23 23 23 23 23 23 23 23 23 23 23 23 23 23 23 23 22 22 22 22 22 22 22 22 22 22 22 21 21 21 21 21 21 21 21 21 21 21 21 21 21 21 20 20 20 20 20 20 20 20 20 20 20 20 20 20 20 20 19 19 19 18 16 15 13 12 12 12 12 12 12 12 12 12 12 12 12 12 12 12 12 12 12 12 12 12 12 11 11 11 12 12 12 12 13 14 15 16 16 16 17 17 17 17 18 18 18 18 19 19 19 19 19 20 20 20 20 21 21 22 23 24 25 27 28 29 30 30 31 32 32 33 33 34 34 35 35 35 34 34 34 33 33 32 31 29 27 26 25 24 23 21 20 20 20 20 20 20 20 20 20 20 20 20 20 21 21 21 21 21 21 21 21 21 21 21 21 21 21 21 21 21 21 21 21 21 21 21 21 21 21 21 21 21 21 22 22 22 22 22 22 22 22 22 22 22 22 22 22 22 22 22 22 22 22 22 22 22 22 21 21 21 21 21 21 21 21 21 21 21 21 21 22 22 22 22 22 22 22 22 23 23 23 23 23 23 23 23 23 24 24 24 24 24 24 24 24 24 24 24 23 23 22 22 21 20 20 20 20 20 20 20 20 20 19 19 19 19 19 19 19 19 19 19 19 19 19 19 19 19 19 19 18 18 18 18 18 18 18 18 18 18 18 17 17 17 17 17 17 17 17 17 17 17 17 17 17 17 17 17 17 17 17 17 16 16 16 16 16 16 16 16 17 17 17 17 17 17 17 17 17 17 17 16 16 16 16 16 16 16 16 16 16 16 16 16 16 16 16 16 16 16 16 16 16 16 16 16 16 16 16 16 16 16 16 16 16 16 16 16 16 16 16 16 16 16 16 16 16 16 16 16 16 16 16 16 16 16 16 16 16 16 16 16 16 16 16 15 15 15 15 15 15 15 15 14 14 14 14 14 13 13 13 13 13 13 13 13 13 13.999415
15 15 16 16 16 16 16 16 16 17 17 17 17 18 18 18 18 19 19 19 19 19 19 19 20 20 20 20 20 20 20 21 21 21 21 21 21 21 21 21 21 21 21 22 22 22 22 22 22 22 22 22 22 22 22 22 22 22 22 22 22 22 22 22 22 22 22 23 23 23 23 23 23 23 23 23 23 23 23 23 23 23 23 24 24 24 24 24 24 24 24 24 24 25 25 25 25 25 25 25 25 24 24 24 24 24 24 24 24 24 24 24 24 24 24 24 24 24 24 24 24 24 24 24 24 24 24 24 24 24 24 24 24 24 24 24 24 24 24 24 24 24 24 24 24 24 24 24 24 24 24 24 24 24 24 24 24 24 24 24 24 24 24 24 24 24 24 24 24 24 24 24 24 24 25 25 25 25 25 25 25 25 25 25 25 25 25 25 25 25 25 25 25 25 25 25 25 25 25 25 26 26 26 26 26 26 26 26 26 26 26 26 26 26 26 26 27 27 27 27 27 27 27 27 27 27 27 27 27 27 27 27 27 27 26 26 27 27 27 28 28 28 28 28 28 28 28 28 28 28 28 28 28 28 28 28 28 28 28 28 28 28 28 28 28 28 28 28 28 28 28 29 29 30 31 33 34 35 36 36 36 36 37 37 37 37 36 36 36 36 36 36 35 35 35 35 34 34 34 33 33 33 33 32 32 32 32 32 32 32 32 32 32 32 31 31 31 31 31 31 31 31 32 32 32 32 33 33 34 34 35 35 36 36 36 36 37 39 41 42 43 43 43 43 43 43 43 42 42 42 42 42 42 42 42 41 41 41 41 40 40 40 40 40 40 40 41 41 41 41 41 41 42 42 42 42 42 43 43 43 43 43 43 43 43 43 43 43 43 43 43 43 43 43 43 42 42 42 43 43 43 43 44 44 44 44 44 44 44 43 43 43 43 43 43 43 43 43 43 43 43 43 43 44 44 45 45 46 46 46 46 47 47 47 47 47 47 47 47 47 48 48 48 48 48 48 47 47 47 47 47 48 48 49 49 49 49 50 50 50 50 50 50 50 49 49 49 50 50 51 51 52 52 52 52 51 51 50 48 47 46 44 43 43 42 41 40 39 38 37 36 35 34 33 33 33 32 32 32 31 31 31 31 31 31 30 30 30 30 30 29 29 29 28 27 27 27 27 27 27 27 27 27 27 27 27 28 28 28 28 28 28 28 29 29 29 29 29 29 28 28 28 28 28 27 27 27 27 26 26 26 26 26 26 26 26 25 25 25 25 25 25 25 24 24 24 24 24 24 24 24 24 24 24 24 24 24 23 23 23 23 23 23 23 23 23 23 23 23 23 23 23 23 23 23 23 23 23 23 23 23 23 23 23 23 23 23 23 23 22 22 22 22 22 22 22 22 22 22 22 22 22 22 21 21 21 21 21 21 21 21 21 21 21 21 21 20 20 20 20 20 20 20 20 20 20 20 19 19 19 19 18 16 15 13 12 12 12 12 12 12 12 12 12 12 12 12 12 12 12 12 12 12 12 12 12 12 12 11 11 12 12 12 12 13 14 15 16 16 16 16 17 17 17 18 18 18 18 19 19 19 19 20 20 20 20 21 21 22 22 23 25 27 28 30 31 32 32 33 33 34 34 34 35 35 35 35 35 35 35 34 34 33 32 31 30 28 26 25 24 23 21 21 20 20 20 20 20 20 20 20 20 20 20 21 21 21 21 21 21 21 21 21 21 21 21 21 21 21 21 21 21 21 21 21 21 21 21 21 21 21 21 22 22 22 22 22 22 22 22 22 22 22 22 22 22 22 22 22 22 22 22 22 22 22 22 22 22 22 22 22 22 22 22 22 22 22 22 22 22 22 22 22 22 23 23 23 23 23 23 23 23 23 23 24 24 24 24 24 24 24 24 24 24 24 24 24 24 24 24 23 23 22 22 21 20 20 20 20 20 20 20 20 20 20 20 19 19 19 19 19 19 19 19 19 19 19 19 19 19 19 19 18 18 18 18 18 18 18 18 18 18 18 17 17 17 17 17 17 17 17 17 17 17 17 17 17 17 17 17 17 17 17 17 17 16 16 16 16 16 16 17 17 17 17 17 17 17 17 17 17 17 17 17 16 16 16 16 16 16 16 16 16 16 16 16 16 16 16 16 16 16 16 16 16 16 16 16 16 16 16 16 16 16 16 16 16 16 16 16 16 16 16 16 16 16 16 16 16 16 16 16 16 16 16 16 16 16 16 16 16 16 16 16 16 16 16 15 15 15 15 15 15 15 15 14 14 14 14 14 13 13 13 13 13 13 13 13 13 13.921922
15 15 16 16 16 16 16 16 16 17 17 17 17 18 18 18 18 19 19 19 19 19 19 19 20 20 20 20 20 20 20 21 21 21 21 21 21 21 21 21 21 21 21 22 22 22 22 22 22 22 22 22 22 22 22 22 22 22 22 22 22 22 22 22 22 22 22 22 23 23 23 23 23 23 23 23 23 23 23 23 23 23 23 24 24 24 24 24 24 24 24 24 24 24 24 25 25 25 25 25 24 24 24 24 24 24 24 24 24 24 24 24 24 24 24 24 24 24 24 24 24 24 24 24 24 24 24 24 24 24 24 24 24 24 24 24 24 24 24 24 24 24 24 24 24 24 24 24 24 24 24 24 24 24 24 24 24 24 24 24 24 24 24 24 24 24 24 24 24 24 24 24 24 24 25 25 25 25 25 25 25 25 25 25 25 25 25 25 25 25 25 25 25 25 25 25 25 25 25 26 26 26 26 26 26 26 26 26 26 26 26 26 26 26 26 26 27 27 27 27 27 27 27 27 27 27 27 27 27 27 27 27 27 27 26 26 27 27 27 28 28 28 28 28 28 28 28 28 28 28 28 28 28 28 28 28 28 28 28 28 28 28 28 28 28 28 28 28 28 28 28 28 29 30 31 32 34 35 36 36 36 36 37 37 37 37 36 36 36 36 36 36 35 35 35 35 34 34 34 33 33 33 33 32 32 32 32 32 32 32 32 32 32 32 32 31 31 31 31 31 31 31 32 32 32 32 32 33 33 34 35 35 36 36 36 36 36 38 40 42 43 43 43 43 43 43 43 43 43 42 42 42 42 42 42 42 41 41 41 40 40 40 40 40 40 40 41 41 41 41 41 41 42 42 42 42 43 43 43 43 43 43 43 43 43 43 43 44 44 44 43 43 43 43 43 43 42 43 43 43 43 44 44 44 44 44 44 44 44 44 43 43 43 43 43 43 43 43 43 43 43 43 43 44 44 45 45 46 46 46 46 47 47 47 47 47 47 47 47 48 48 48 48 48 48 48 48 47 47 47 48 48 49 49 49 50 50 50 50 50 50 50 50 50 50 50 50 50 50 51 52 52 52 52 52 52 51 50 49 48 46 45 44 43 42 41 40 39 38 37 36 35 34 33 33 32 32 32 32 31 31 31 31 31 30 30 30 30 30 29 29 29 28 28 27 27 27 27 27 27 27 27 27 27 27 27 27 27 27 27 27 27 27 27 28 28 28 28 28 28 28 27 27 27 27 27 27 26 26 26 26 26 26 26 26 25 25 25 25 25 25 25 25 25 24 24 24 24 24 24 24 24 24 24 24 24 24 24 24 24 24 23 23 23 23 23 23 23 23 23 23 23 23 23 23 23 23 23 23 23 23 23 23 23 23 23 23 23 23 23 22 22 22 22 22 22 22 22 22 22 22 22 22 22 22 22 22 21 21 21 21 21 21 21 21 21 21 21 20 20 20 20 20 20 20 20 20 19 19 18 18 18 16 14 13 13 13 12 12 12 12 12 12 12 12 12 12 12 12 12 12 12 12 12 12 12 12 12 12 12 12 12 12 12 13 14 15 15 16 16 16 17 17 17 18 18 18 19 19 19 19 20 20 20 20 21 21 22 22 23 24 26 28 30 31 32 33 34 34 35 35 35 36 36 36 36 36 36 35 35 35 34 33 33 31 30 28 27 26 25 23 22 21 20 20 20 20 20 20 20 20 20 20 20 21 21 21 21 21 21 21 21 21 21 21 21 21 21 21 21 21 21 21 21 21 21 21 21 21 21 22 22 22 22 22 22 22 22 22 22 22 22 22 22 22 22 22 22 22 22 22 22 22 22 22 22 22 22 22 22 22 22 22 22 22 22 22 22 22 22 23 23 23 23 23 23 24 24 24 24 24 24 24 24 24 24 24 24 24 24 24 24 24 24 24 24 24 24 24 24 23 23 23 22 21 20 20 20 20 20 20 20 20 20 20 20 20 19 19 19 19 19 19 19 19 19 19 19 19 19 19 19 19 18 18 18 18 18 18 18 18 18 18 17 17 17 17 17 17 17 17 17 17 17 17 17 17 17 17 17 17 17 17 17 17 17 16 16 16 16 16 17 17 17 17 17 17 17 17 17 17 17 17 17 17 17 17 16 16 16 16 16 16 16 16 16 16 16 16 16 16 16 16 16 16 16 16 16 16 16 16 16 16 16 16 16 16 16 16 16 16 16 16 16 16 16 16 16 16 16 16 16 16 16 16 16 16 16 16 16 16 16 16 16 16 16 16 15 15 15 15 15 15 15 15 14 14 14 14 14 13 13 13 13 13 13 13 13 13 13.844428
15 15 16 16 16 16 16 16 16 17 17 17 17 18 18 18 18 19 19 19 19 19 19 19 20 20 20 20 20 20 21 21 21 21 21 21 21 21 21 21 21 21 21 21 21 22 22 22 22 22 22 22 22 22 22 22 22 22 22 22 22 22 22 22 22 22 22 22 22 23 23 23 23 23 23 23 23 23 23 23 23 23 23 24 24 24 24 24 24 24 24 24 24 24 24 24 24 24 24 24 24 24 24 24 24 24 24 24 24 24 24 24 24 24 24 24 24 24 24 24 24 24 24 24 24 24 24 24 24 24 24 24 24 24 24 24 24 24 24 24 24 24 24 24 24 24 24 24 24 24 24 24 24 24 24 24 24 24 24 24 24 24 24 24 24 24 24 24 24 24 24 24 24 24 25 25 25 25 25 25 25 25 25 25 25 25 25 25 25 25 25 25 25 25 26 26 26 26 26 26 26 26 26 26 26 26 26 26 26 26 26 26 26 26 26 26 27 27 27 27 27 27 27 27 27 27 27 27 27 27 27 27 27 27 26 27 27 27 27 28 28 28 28 28 28 28 28 28 28 28 28 28 28 28 28 28 28 28 28 28 28 28 28 28 28 28 28 28 28 28 28 28 28 29 30 31 33 34 35 36 36 36 36 36 36 36 36 36 36 36 36 36 35 35 35 35 34 34 34 33 33 33 33 32 32 32 32 32 32 32 32 32 32 32 32 32 31 31 31 31 31 31 31 32 32 32 32 33 33 34 34 35 36 36 36 36 36 37 39 41 42 43 43 43 43 43 43 43 43 42 42 42 42 42 42 41 41 41 41 40 40 40 40 40 40 40 40 41 41 41 41 41 42 42 42 42 42 43 43 43 43 43 43 43 43 44 44 44 44 44 44 44 43 43 43 43 43 43 43 43 44 44 44 44 44 44 44 44 44 44 43 43 43 43 43 43 43 43 43 43 43 43 43 44 44 45 45 46 46 46 46 47 47 47 47 47 47 47 47 48 48 48 48 48 48 48 48 47 47 47 48 48 49 49 50 50 50 50 50 50 50 50 50 50 50 50 50 50 51 51 52 52 52 52 52 52 52 51 49 48 47 45 44 43 42 41 40 39 38 37 36 35 34 33 33 32 32 32 32 31 31 31 31 31 30 30 30 30 30 30 29 29 28 28 27 27 27 27 27 27 27 27 27 27 27 27 27 27 27 27 27 27 27 27 27 27 27 27 27 27 27 27 27 26 26 26 26 26 26 26 26 26 26 26 25 25 25 25 25 25 25 25 25 25 25 24 24 24 24 24 24 24 24 24 24 24 24 24 24 24 24 24 24 24 24 23 23 23 23 23 23 23 23 23 23 23 23 23 23 23 23 23 23 23 23 23 23 23 23 23 23 23 22 22 22 22 22 22 22 22 22 22 22 22 22 22 22 22 22 21 21 21 21 21 21 21 21 21 21 21 20 20 20 20 20 20 19 19 18 18 18 17 16 14 13 13 13 13 12 12 12 12 12 12 12 12 12 12 12 12 12 12 12 12 12 12 12 12 12 12 12 12 12 12 13 14 15 15 16 16 16 16 17 17 18 18 18 19 19 19 19 20 20 20 21 21 22 22 23 24 25 27 29 31 33 34 35 36 36 36 36 37 37 37 37 37 36 36 36 35 35 34 34 33 32 30 29 27 26 25 24 22 21 20 20 20 20 20 20 20 20 20 20 21 21 21 21 21 21 21 21 21 21 21 21 21 21 21 21 21 21 21 21 21 21 21 21 21 21 22 22 22 22 22 22 22 22 22 22 22 22 22 22 22 22 22 22 22 22 22 22 23 23 23 23 23 23 23 22 22 22 22 22 22 23 23 23 23 23 23 23 23 23 24 24 24 24 24 24 24 24 24 24 24 24 24 24 24 24 24 24 24 24 24 24 24 24 24 24 24 23 23 23 22 21 21 20 20 20 20 20 20 20 20 20 20 20 20 19 19 19 19 19 19 19 19 19 19 19 19 19 19 19 18 18 18 18 18 18 18 18 18 18 17 17 17 17 17 17 17 17 17 17 17 17 17 17 17 17 17 17 17 17 17 17 16 16 16 16 16 16 16 16 17 17 17 17 17 17 17 17 17 17 17 17 17 17 17 16 16 16 16 16 16 16 16 16 16 16 16 16 16 16 16 16 16 16 16 16 16 16 16 16 16 16 16 16 16 16 16 16 16 16 16 16 16 16 16 16 16 16 16 16 16 16 16 16 16 16 16 16 16 16 16 16 16 16 15 15 15 15 15 15 15 15 14 14 14 14 14 13 13 13 13 13 13 13 13 13 13.765444
15 15 16 16 16 16 16 16 16 17 17 17 17 18 18 18 18 19 19 19 19 19 19 19 20 20 20 20 20 20 21 21 21 21 21 21 21 21 21 21 21 21 21 21 21 21 22 22 22 22 22 22 22 22 22 22 22 22 22 22 22 22 22 22 22 22 22 22 22 22 23 23 23 23 23 23 23 23 23 23 23 23 23 24 24 24 24 24 24 24 24 24 24 24 24 24 24 24 24 24 24 24 24 24 24 24 24 24 24 24 24 24 24 24 24 24 24 24 24 24 24 24 24 24 24 24 24 24 24 24 24 24 24 24 24 24 24 24 24 24 24 24 24 24 24 24 24 24 24 24 24 24 24 24 24 24 24 24 24 24 24 24 24 24 24 24 24 24 24 24 24 24 24 25 25 25 25 25 25 25 25 25 25 25 25 25 25 25 25 25 25 25 25 26 26 26 26 26 26 26 26 26 26 26 26 26 26 26 26 26 26 26 26 26 26 26 27 27 27 27 27 27 27 27 27 27 27 27 27 27 27 27 27 27 27 27 27 27 27 28 28 28 28 28 28 28 28 28 28 28 28 28 28 28 28 28 28 28 28 28 28 28 28 28 28 28 28 28 28 28 28 28 28 29 29 31 33 34 35 35 36 36 36 36 36 36 36 36 36 36 36 36 35 35 35 35 34 34 34 33 33 33 33 32 32 32 32 32 32 32 32 32 32 32 32 32 31 31 31 31 31 31 31 32 32 32 32 33 33 34 34 35 36 36 36 36 36 37 39 40 42 43 43 43 43 43 43 43 43 42 42 42 42 42 42 41 41 41 40 40 40 40 40 40 40 40 40 40 41 41 41 41 41 42 42 42 42 42 43 43 43 43 43 43 44 44 44 44 44 44 44 44 44 43 43 43 43 43 43 43 44 44 44 44 44 44 44 44 44 44 43 43 43 43 43 43 43 43 43 43 43 43 43 44 44 45 45 46 46 46 46 47 47 47 47 47 47 47 47 48 48 48 48 48 48 48 48 47 47 47 48 48 49 50 50 50 50 50 50 50 50 50 50 50 50 50 50 50 51 51 52 52 52 53 53 52 52 51 50 49 47 46 45 43 43 41 40 39 38 37 36 35 34 33 33 32 32 32 32 31 31 31 31 31 30 30 30 30 30 30 29 29 29 28 28 27 27 27 27 27 27 27 27 27 27 27 27 26 26 26 26 26 26 26 26 26 26 26 26 26 26 26 26 26 26 26 25 25 25 25 25 25 25 25 25 25 25 25 25 25 25 25 25 25 25 25 25 24 24 24 24 24 24 24 24 24 24 24 24 24 24 24 24 24 24 24 24 24 23 23 23 23 23 23 23 23 23 23 23 23 23 23 23 23 23 23 23 23 23 23 23 23 23 23 23 23 23 23 23 23 23 23 23 22 22 22 22 22 22 22 22 21 21 21 21 21 21 21 21 21 21 21 20 20 20 19 19 18 18 18 18 17 15 14 13 13 13 13 13 12 12 12 12 12 12 12 12 12 12 12 12 12 12 12 12 12 12 12 12 12 12 12 12 12 13 14 14 15 16 16 16 16 17 17 18 18 18 19 19 19 20 20 20 21 21 22 22 23 24 25 27 29 31 33 35 36 37 37 38 38 38 38 38 38 38 38 37 37 36 35 35 34 34 33 32 31 29 28 26 25 24 23 21 20 20 20 20 20 20 20 20 20 21 21 21 21 22 22 21 21 21 21 21 21 21 21 21 21 21 21 21 21 21 21 21 21 21 22 22 22 22 22 22 22 22 22 22 22 22 22 22 22 22 22 22 22 23 23 23 23 23 23 23 23 23 23 23 23 23 23 23 23 23 23 23 23 23 23 24 24 24 24 24 24 24 24 24 24 25 25 25 25 25 25 25 25 24 24 24 24 24 24 24 24 24 24 24 24 24 24 23 23 23 22 22 21 21 20 20 20 20 20 20 20 20 20 20 20 20 19 19 19 19 19 19 19 19 19 19 19 19 19 19 18 18 18 18 18 18 18 18 18 18 18 17 17 17 17 17 17 17 17 17 17 17 17 17 17 17 17 17 17 17 17 17 16 16 16 16 16 16 16 16 16 16 17 17 17 17 17 17 17 17 17 17 17 17 17 16 16 16 16 16 16 16 16 16 16 16 16 16 16 16 16 16 16 16 16 16 16 16 16 16 16 16 16 16 16 16 16 16 16 16 16 16 16 16 16 16 16 16 16 16 16 16 16 16 16 16 16 16 16 16 16 16 16 16 15 15 15 15 15 15 15 15 14 14 14 14 14 13 13 13 13 13 13 13 13 13 13.68646
15 15 16 16 16 16 16 16 16 17 17 17 17 18 18 18 18 19 19 19 19 19 19 19 20 20 20 20 20 20 21 21 21 21 21 21 21 21 21 21 21 21 21 21 21 21 22 22 22 22 22 22 22 22 22 22 22 22 22 22 22 22 22 22 22 22 22 22 22 22 23 23 23 23 23 23 23 23 23 23 23 23 23 23 24 24 24 24 24 24 24 24 24 24 24 24 24 24 24 24 24 24 24 24 24 24 24 24 24 24 24 24 24 24 24 24 24 24 24 24 24 24 24 24 24 24 24 24 24 24 24 24 24 24 24 24 24 24 24 24 24 24 24 24 24 24 24 24 24 24 24 24 24 24 24 24 24 24 24 24 24 24 24 24 24 24 24 24 24 24 24 25 25 25 25 25 25 25 25 25 25 25 25 25 25 25 25 25 25 25 25 26 26 26 26 26 26 26 26 26 26 26 26 26 26 26 26 26 26 26 26 26 26 26 26 27 27 27 27 27 27 27 27 27 27 27 27 27 27 27 27 27 27 27 27 27 27 27 27 28 28 28 28 28 28 28 28 28 28 28 28 28 28 28 28 28 28 29 29 29 29 29 29 28 28 28 28 28 28 28 28 28 28 28 29 30 32 34 35 35 35 36 36 36 36 36 36 36 36 36 36 36 35 35 35 34 34 34 33 33 33 33 33 32 32 32 32 32 32 32 32 32 32 32 32 32 31 31 31 31 31 31 32 32 32 32 33 33 33 34 35 35 36 36 36 36 36 37 38 40 42 43 43 43 43 43 43 43 43 43 42 42 42 42 41 41 41 41 40 40 40 40 40 40 40 40 40 40 40 40 41 41 41 41 42 42 42 42 43 43 43 43 43 44 44 44 44 44 44 44 44 44 44 43 43 43 43 43 43 44 44 44 44 44 44 44 44 44 44 44 43 43 43 43 43 42 42 42 42 43 43 43 43 44 44 45 45 46 46 46 46 47 47 47 47 47 47 47 47 48 48 48 48 48 48 48 47 47 47 47 48 49 49 50 50 50 51 51 51 50 50 50 50 50 50 50 50 50 51 51 52 52 53 53 53 52 52 51 50 49 48 46 45 44 42 41 40 39 38 37 36 35 34 33 33 33 32 32 32 31 31 31 31 31 30 30 30 30 30 30 29 29 29 28 28 27 27 27 27 27 27 27 27 27 27 27 27 26 26 26 26 26 26 26 26 26 26 26 26 26 26 26 25 25 25 25 25 25 25 25 25 25 25 25 25 25 25 25 25 25 25 25 25 25 25 25 25 25 25 25 25 24 24 24 24 24 24 24 24 24 24 24 24 24 24 24 24 24 24 24 24 23 23 23 23 23 23 23 23 23 23 23 23 23 23 23 23 23 23 23 23 23 23 23 23 23 23 23 23 23 23 23 23 23 23 22 22 22 22 22 22 22 22 21 21 21 21 21 21 21 21 21 20 20 20 19 19 18 18 17 17 17 15 14 13 13 13 13 13 12 12 12 12 12 12 12 12 12 12 12 12 12 12 12 12 12 12 12 12 12 12 12 12 12 13 14 15 15 16 16 16 17 17 17 18 18 18 19 19 19 20 20 21 21 22 22 23 24 25 27 29 31 33 35 37 38 38 39 39 39 39 39 39 39 38 38 38 37 37 36 35 35 34 33 32 31 30 28 27 26 25 23 22 21 21 20 20 20 20 20 21 21 21 21 21 22 22 22 22 21 21 21 21 21 21 21 21 21 21 21 21 22 22 22 22 22 22 22 22 22 22 22 22 22 22 22 22 22 22 22 22 22 22 23 23 23 23 23 23 23 23 23 24 24 24 24 24 24 24 24 24 24 24 24 24 24 24 24 24 24 24 25 25 25 25 25 25 25 25 25 25 25 25 25 25 25 25 25 25 24 24 24 24 24 24 24 24 24 24 24 24 23 23 22 22 21 21 21 21 21 21 21 20 20 20 20 20 20 20 19 19 19 19 19 19 19 19 19 19 19 19 19 19 19 18 18 18 18 18 18 18 18 18 18 17 17 17 17 17 17 17 17 17 17 17 17 17 17 17 17 17 17 17 17 17 16 16 16 16 16 16 16 16 16 16 17 17 17 17 17 17 17 17 17 16 16 16 16 16 16 16 16 16 16 16 16 16 16 16 16 16 16 16 16 16 16 16 16 16 16 16 16 16 16 16 16 16 16 16 16 16 16 16 16 16 16 16 16 16 16 16 16 16 16 16 16 16 16 16 16 16 16 16 16 16 16 16 15 15 15 15 15 15 15 15 14 14 14 14 14 13 13 13 13 13 13 13 13 13 13.610704
15 15 16 16 16 16 16 16 16 17 17 17 17 18 18 18 18 19 19 19 19 19 19 19 20 20 20 20 20 20 21 21 21 21 21 21 21 21 21 21 21 21 21 21 21 22 22 22 22 22 22 22 22 22 22 22 22 22 22 22 22 22 22 22 22 22 22 22 22 22 22 23 23 23 23 23 23 23 23 23 23 23 23 23 23 24 24 24 24 24 24 24 24 24 24 24 24 24 24 24 24 24 24 24 24 24 24 24 24 24 24 24 24 24 24 24 24 24 24 24 24 24 24 24 24 24 24 24 24 24 24 24 24 24 24 24 24 24 24 24 24 24 24 24 24 24 24 24 24 24 24 24 24 24 24 24 24 24 24 24 24 24 24 24 24 24 24 25 25 25 25 25 25 25 25 25 25 25 25 25 25 25 25 25 25 25 25 25 25 25 25 26 26 26 26 26 26 26 26 26 26 26 26 26 26 26 26 26 26 26 26 26 26 26 27 27 27 27 27 27 27 27 27 27 27 27 27 27 27 27 27 27 27 27 27 27 27 27 27 27 28 28 28 28 28 28 28 28 28 28 28 28 28 28 29 29 29 29 29 29 29 29 29 28 28 28 28 28 28 28 28 28 28 28 28 30 32 33 35 35 35 36 36 36 36 36 36 36 36 36 36 35 35 35 35 34 34 34 33 33 33 33 33 32 32 32 32 32 32 32 32 32 32 32 32 32 31 31 31 31 31 31 32 32 32 32 33 33 34 34 35 35 36 36 36 36 36 37 38 40 42 42 43 43 43 43 43 43 43 43 42 42 42 41 41 41 41 41 40 40 40 40 40 40 40 40 40 40 40 40 40 40 41 41 41 42 42 42 42 43 43 43 44 44 44 44 44 44 44 44 44 44 44 44 43 43 43 43 43 44 44 44 44 44 44 44 44 44 44 44 43 43 43 43 42 42 42 42 42 43 43 43 43 44 44 45 45 45 46 46 46 47 47 47 47 47 47 47 47 47 48 48 48 48 48 48 47 47 47 47 48 49 50 50 51 51 51 51 51 51 51 51 50 50 50 50 50 50 51 51 52 52 53 53 53 53 52 52 51 49 48 46 45 44 42 41 40 39 38 37 36 35 34 33 33 33 32 32 32 31 31 31 31 31 31 30 30 30 30 30 30 29 29 29 28 28 27 27 27 27 27 27 27 27 27 27 27 26 26 26 26 26 26 26 26 26 26 26 26 25 25 25 25 25 25 25 25 25 25 25 25 25 25 25 25 25 25 25 25 25 25 25 25 25 25 25 25 25 25 25 25 25 25 25 24 24 24 24 24 24 24 24 24 24 24 24 24 24 24 24 24 24 24 23 23 23 23 23 23 23 23 23 23 23 23 23 23 23 23 23 23 23 23 23 23 23 23 23 23 23 23 23 23 23 23 23 23 22 22 22 22 22 22 22 22 21 21 21 21 21 21 21 20 20 20 19 18 18 18 17 17 17 15 14 13 13 13 13 13 13 12 12 12 12 12 12 12 12 12 12 12 12 12 12 12 12 12 12 12 12 12 12 12 12 13 14 15 16 16 16 17 17 17 17 18 18 18 19 19 19 20 21 21 22 23 23 24 25 27 28 30 33 35 37 38 39 40 40 40 40 40 40 40 40 39 39 38 38 37 36 36 35 35 34 33 32 30 29 28 27 26 24 22 21 21 21 21 21 21 21 21 21 21 21 22 22 22 22 22 22 22 22 22 22 22 22 22 22 22 22 22 22 22 22 22 22 22 22 22 22 22 22 22 22 22 22 22 22 22 22 22 23 23 23 23 23 24 24 24 24 24 24 24 24 24 24 24 24 24 24 24 24 24 24 24 25 25 25 25 25 25 25 25 25 25 25 25 25 25 25 25 25 25 25 25 25 25 25 25 25 25 24 24 24 24 24 24 24 24 24 24 23 23 23 22 21 21 21 21 21 21 21 21 21 20 20 20 20 20 19 19 19 19 19 19 19 19 19 19 19 19 19 19 19 18 18 18 18 18 18 18 18 18 18 18 17 17 17 17 17 17 17 17 17 17 17 17 17 17 17 17 17 17 17 17 16 16 16 16 16 16 16 16 16 16 17 17 17 17 17 17 16 16 16 16 16 16 16 16 16 16 16 16 16 16 16 16 16 16 16 16 16 16 16 16 16 16 16 16 16 16 16 16 16 16 16 16 16 16 16 16 16 16 16 16 16 16 16 16 16 16 16 16 16 16 16 16 16 16 16 16 16 16 16 16 16 16 15 15 15 15 15 15 15 15 14 14 14 14 14 13 13 13 13 13 13 13 13 13 13.534948
15 15 15 16 16 16 16 16 16 17 17 17 18 18 18 18 18 19 19 19 19 19 19 19 20 20 20 20 20 21 21 21 21 21 21 21 21 21 21 21 21 21 21 21 22 22 22 22 22 22 22 22 22 22 22 22 22 22 22 22 22 22 22 22 22 22 22 22 22 22 22 23 23 23 23 23 23 23 23 23 23 23 23 23 23 23 24 24 24 24 24 24 24 24 24 24 24 24 24 24 24 24 24 24 24 24 24 24 24 24 24 24 24 24 24 24 24 24 24 24 24 24 24 24 24 24 24 24 24 24 24 24 24 24 24 24 24 24 24 24 24 24 24 24 24 24 24 24 24 24 24 24 24 24 24 24 24 24 24 24 24 24 24 24 25 25 25 25 25 25 25 25 25 25 25 25 25 25 25 25 25 25 25 25 25 25 25 25 25 26 26 26 26 26 26 26 26 26 26 26 26 26 26 26 26 26 26 27 27 27 27 27 27 27 27 27 27 27 27 27 27 27 27 27 27 27 27 27 27 27 27 27 27 27 27 27 27 27 27 27 28 28 28 28 28 28 28 28 28 28 28 28 28 28 29 29 29 29 29 29 29 29 29 29 29 28 28 28 28 28 28 28 28 28 28 30 32 33 34 35 35 36 36 36 36 36 36 36 36 36 36 35 35 35 35 34 34 34 33 33 33 33 33 32 32 32 32 32 32 32 32 32 32 32 32 32 31 31 31 31 31 31 32 32 32 32 33 33 34 34 35 35 36 36 36 36 36 37 38 40 42 43 43 43 43 43 43 43 43 43 42 42 42 41 41 41 41 40 40 40 40 40 40 40 40 40 40 40 40 40 40 40 40 41 41 41 42 42 42 43 43 43 44 44 44 44 44 44 44 44 44 44 44 44 43 43 43 43 44 44 45 45 45 45 44 44 44 44 44 44 43 43 43 43 42 42 42 42 42 43 43 43 43 43 44 44 45 45 46 46 46 46 47 47 47 47 47 47 48 48 48 48 48 48 48 48 48 47 47 48 48 49 50 50 51 51 51 51 51 51 51 51 51 50 50 50 50 50 51 51 52 52 53 53 53 53 52 52 51 50 48 47 45 44 42 41 40 38 37 36 36 35 34 34 33 33 32 32 32 32 31 31 31 31 31 31 30 30 30 30 30 30 29 29 28 28 28 27 27 27 27 27 27 27 27 27 27 27 26 26 26 26 26 26 26 26 26 26 26 26 25 25 25 25 25 25 25 25 25 25 25 25 25 25 25 25 25 25 25 25 25 25 25 25 25 25 25 25 25 25 25 25 25 25 25 25 25 24 24 24 24 24 24 24 24 24 24 24 24 24 24 24 24 24 24 24 23 23 23 23 23 24 24 24 24 24 24 24 24 23 23 23 23 23 23 23 23 23 23 23 23 23 23 23 23 23 23 23 22 22 22 22 22 22 22 22 22 21 21 21 21 21 20 20 20 19 18 18 18 17 17 16 15 14 14 13 13 13 13 13 13 12 12 12 12 12 12 12 12 12 12 12 12 12 12 12 12 12 12 12 12 12 12 12 13 14 15 17 18 18 19 19 19 19 19 19 20 20 20 21 21 22 23 24 25 26 27 28 29 31 33 35 37 38 40 40 41 41 41 41 41 40 40 40 40 39 39 38 38 37 37 36 35 35 34 33 32 31 29 28 27 25 23 21 21 21 21 21 21 21 21 21 21 21 22 22 22 22 22 22 22 22 22 22 22 22 22 22 22 22 22 22 22 22 22 22 22 22 22 22 22 22 22 22 22 23 23 23 23 23 23 24 24 24 24 24 25 25 25 25 25 25 25 25 25 25 25 25 25 25 25 25 25 25 25 25 25 25 25 25 26 26 26 26 26 26 25 25 25 25 25 25 25 25 25 25 25 25 25 25 25 25 25 24 24 24 24 24 24 24 24 23 23 23 22 22 21 21 21 21 21 21 21 21 20 20 20 20 20 20 19 19 19 19 19 19 19 19 19 19 19 19 19 19 18 18 18 18 18 18 18 18 18 18 18 18 18 17 17 17 17 17 17 17 17 17 17 17 17 17 17 17 17 17 17 17 16 16 16 16 16 16 16 16 16 17 17 17 17 17 17 17 16 16 16 16 16 16 16 16 16 16 16 16 16 16 16 16 16 16 16 16 16 16 16 16 16 16 16 16 16 16 16 16 16 16 16 16 16 16 16 16 16 16 16 16 16 16 16 16 16 16 16 16 16 16 16 16 16 16 16 16 16 16 16 16 16 15 15 15 15 15 15 15 15 15 14 14 14 14 14 13 13 13 13 13 13 13 13 13.477266
15 15 15 16 16 16 16 16 17 17 17 17 18 18 18 18 18 19 19 19 19 19 19 19 20 20 20 20 20 21 21 21 21 21 21 21 21 21 21 21 21 21 22 22 22 22 22 22 22 22 22 22 22 22 22 22 22 22 22 22 22 22 22 22 22 22 22 22 22 22 22 23 23 23 23 23 23 23 23 23 23 23 23 23 23 23 23 24 24 24 24 24 24 24 24 24 24 24 24 24 24 24 24 24 24 24 24 24 24 24 24 24 24 24 24 24 24 24 24 24 24 24 24 24 24 24 24 24 24 24 24 24 24 24 24 24 24 24 24 24 24 24 24 24 24 24 24 24 24 24 24 24 24 24 24 24 24 24 24 24 24 24 25 25 25 25 25 25 25 25 25 25 25 25 25 25 25 25 25 25 25 25 25 25 25 25 25 25 26 26 26 26 26 26 26 26 26 26 26 26 26 26 26 26 27 27 27 27 27 27 27 27 27 27 27 27 27 27 27 27 27 27 27 27 27 27 27 27 27 27 27 27 27 27 27 27 27 27 27 27 28 28 28 28 28 28 28 28 28 28 28 28 28 29 29 29 29 29 29 29 29 29 29 29 29 29 29 29 29 28 28 28 28 28 28 30 31 33 34 35 35 36 36 36 36 36 36 36 36 36 35 35 35 35 35 34 34 34 33 33 33 33 33 32 32 32 32 32 32 32 32 32 32 32 32 32 31 31 31 31 31 31 32 32 32 33 33 34 34 35 35 36 36 36 36 36 36 37 38 40 42 43 43 43 43 43 43 43 43 43 42 42 41 41 41 41 40 40 40 40 39 39 40 40 40 40 39 39 39 40 40 40 40 41 41 41 42 42 42 43 43 43 44 44 44 45 45 45 45 45 45 44 44 44 43 43 43 43 44 44 45 45 45 45 44 44 44 44 44 44 43 43 43 43 42 42 42 42 42 42 43 43 43 43 44 44 45 45 46 46 46 46 47 47 47 47 47 48 48 48 48 48 48 48 48 48 48 47 47 48 48 49 50 51 51 51 51 51 51 51 51 51 51 51 50 50 50 50 51 51 52 53 53 53 53 53 53 52 51 50 49 47 45 43 42 40 39 38 37 36 36 35 34 34 33 33 33 32 32 32 31 31 31 31 31 31 30 30 30 30 30 30 29 29 28 28 28 28 28 28 27 27 27 27 27 27 27 27 26 26 26 26 26 26 26 26 26 26 26 26 26 25 25 25 25 25 25 25 25 25 25 25 25 25 25 25 25 25 25 25 25 25 25 25 25 25 25 25 25 25 25 25 25 25 25 25 25 25 25 24 24 24 24 24 24 24 24 24 24 24 24 24 24 24 24 24 24 24 24 24 24 24 24 24 24 24 24 24 24 24 24 24 24 24 24 24 24 24 24 24 24 24 24 24 23 23 23 23 23 23 22 22 22 22 22 22 22 22 21 21 21 21 20 20 20 19 18 18 17 17 17 16 15 14 14 13 13 13 13 13 13 13 13 13 13 13 13 13 13 13 12 12 12 12 12 12 12 12 12 12 12 12 12 13 13 14 16 18 19 20 20 21 21 21 21 21 21 21 22 22 23 24 25 26 27 28 29 30 32 33 35 37 39 40 41 41 42 42 42 41 41 41 41 40 40 40 39 39 38 38 37 37 36 36 35 34 33 32 31 29 28 27 24 22 21 21 21 21 21 21 21 21 21 22 22 22 23 23 22 22 22 22 22 22 22 22 22 22 22 22 22 22 22 22 22 22 22 22 22 22 23 23 23 23 23 23 23 24 24 24 24 24 25 25 25 25 26 26 26 26 26 26 26 26 26 26 26 26 26 26 26 26 26 26 26 26 26 26 26 26 26 26 26 26 26 26 26 26 26 26 26 26 26 26 26 25 25 25 25 25 25 25 25 25 25 25 24 24 24 24 24 24 23 23 22 22 21 21 21 21 21 21 21 21 21 20 20 20 20 20 19 19 19 19 19 19 19 19 19 19 19 19 19 19 18 18 18 18 18 18 18 18 18 18 18 18 18 18 17 17 17 17 17 17 17 17 17 17 17 17 17 17 17 17 17 17 16 16 16 16 16 16 16 16 17 17 17 17 17 17 17 17 16 16 16 16 16 16 16 16 16 16 16 16 16 16 16 16 16 16 16 16 16 16 16 16 16 16 16 16 16 16 16 16 16 16 16 16 16 16 16 16 16 16 16 16 16 16 16 16 16 16 16 16 16 16 16 16 16 16 16 16 16 16 16 16 16 15 15 15 15 15 15 15 15 15 15 14 14 14 14 13 13 13 13 13 13 13 13 13.419583
15 15 15 16 16 16 16 16 17 17 17 17 18 18 18 18 18 19 19 19 19 19 19 19 20 20 20 20 20 21 21 21 21 21 21 21 21 21 21 21 22 22 22 22 22 22 22 22 22 22 22 22 22 22 22 22 22 22 22 22 22 22 22 22 22 22 22 22 22 22 23 23 23 23 23 23 23 23 23 23 23 23 23 23 23 23 24 24 24 24 24 24 24 24 24 24 24 24 24 24 24 24 24 24 24 24 24 24 24 24 24 24 24 24 24 24 24 24 24 24 24 24 24 24 24 24 24 24 24 24 24 24 24 24 24 24 24 24 24 24 24 24 24 24 24 24 24 24 24 24 24 24 24 25 25 25 25 25 25 25 25 25 25 25 25 25 25 25 25 25 25 25 25 25 25 25 25 25 25 25 25 25 25 25 25 25 25 26 26 26 26 26 26 26 26 26 26 27 27 27 27 27 27 27 27 27 27 27 27 27 27 27 27 27 27 27 27 27 27 27 27 27 27 27 27 27 27 27 27 27 27 27 27 27 27 27 27 27 27 27 27 28 28 28 28 28 28 28 28 28 28 28 29 29 29 29 29 29 29 29 29 29 29 29 29 29 29 29 29 29 28 28 28 28 29 30 31 33 34 35 35 36 36 36 36 36 36 36 36 36 35 35 35 35 35 34 34 34 33 33 33 33 33 32 32 32 32 32 32 32 32 32 32 32 32 32 31 31 31 31 31 31 32 32 32 33 33 34 34 35 35 36 36 37 37 37 37 37 39 40 42 43 43 43 44 44 44 44 43 43 42 42 41 41 41 40 40 40 39 39 39 39 39 39 39 39 39 39 39 40 40 40 40 41 41 41 42 42 42 43 43 44 44 44 45 45 45 45 45 45 45 45 44 44 44 44 43 44 44 45 45 45 45 45 44 44 44 44 44 44 43 43 43 43 42 42 42 42 42 42 43 43 43 43 44 44 45 45 45 46 46 46 46 47 47 47 48 48 48 48 48 48 48 48 48 48 48 48 47 48 48 49 50 51 51 52 52 52 51 51 51 51 51 51 51 50 50 51 51 51 52 53 53 53 53 53 53 52 51 50 49 47 45 43 41 40 39 38 37 36 36 35 35 34 34 33 33 32 32 32 32 31 31 31 31 31 31 30 30 30 30 30 30 29 29 28 28 28 28 28 28 27 27 27 27 27 27 27 27 26 26 26 26 26 26 26 26 26 26 26 26 26 26 26 25 25 25 25 25 25 25 25 26 26 26 26 26 26 25 25 25 25 25 25 25 25 25 25 25 25 25 26 26 26 26 25 25 25 25 25 25 24 24 24 24 24 24 24 24 24 24 24 24 24 24 24 24 24 24 24 24 24 24 24 24 24 24 24 24 24 24 24 24 24 24 24 24 24 24 24 24 24 24 24 24 23 23 23 23 23 23 22 22 22 22 22 22 22 21 21 21 21 20 20 20 19 18 18 17 17 16 16 15 14 14 13 13 13 13 13 13 13 13 13 13 13 13 13 13 13 13 13 13 12 12 12 12 12 12 12 12 12 12 13 13 15 18 20 22 23 24 24 25 25 25 25 25 25 25 26 27 27 28 29 30 31 32 33 34 36 37 39 40 41 42 42 42 42 42 42 41 41 41 41 40 40 40 39 39 38 38 38 37 37 36 36 35 34 33 31 30 28 25 22 22 21 21 21 21 21 22 22 22 22 22 22 23 23 23 23 22 22 22 22 22 22 22 23 23 23 23 23 23 23 23 23 23 23 23 23 24 24 24 24 24 25 25 25 25 26 26 26 26 26 26 27 27 27 27 27 27 27 27 27 27 27 27 27 27 27 26 26 26 26 26 26 26 26 26 26 27 27 27 26 26 26 26 26 26 26 26 26 26 26 26 26 26 25 25 25 25 25 25 25 25 25 25 24 24 24 24 24 23 23 23 22 22 21 21 21 21 21 21 21 21 21 20 20 20 20 20 19 19 19 19 19 19 19 19 19 19 19 19 19 19 18 18 18 18 18 18 18 18 18 18 18 18 18 18 17 17 17 17 17 17 17 17 17 17 17 17 17 17 17 17 17 17 16 16 16 16 16 16 17 17 17 17 17 17 17 17 17 16 16 16 16 16 16 16 16 16 16 16 16 16 16 16 16 16 16 16 16 16 16 16 16 16 16 16 16 16 16 16 16 16 16 16 16 16 16 16 16 16 16 16 16 16 16 16 16 16 16 16 16 16 16 16 16 16 16 16 16 16 16 16 16 16 15 15 15 15 15 15 15 15 15 15 14 14 14 14 13 13 13 13 13 13 13 13 13.39094
15 15 15 15 16 16 16 16 17 17 17 17 18 18 18 18 19 19 19 19 19 19 19 19 20 20 20 20 21 21 21 21 21 21 21 21 21 21 22 22 22 22 22 22 22 22 22 22 22 22 22 22 22 22 22 22 22 22 22 22 22 22 22 22 22 22 22 22 22 23 23 23 23 23 23 23 23 23 23 23 23 23 23 23 23 24 24 24 24 24 24 24 24 24 24 24 24 24 24 24 24 24 24 24 24 24 24 24 24 24 24 24 24 24 24 24 24 24 24 24 24 24 24 24 24 24 24 24 24 24 24 24 24 24 24 24 24 24 24 24 24 24 25 24 24 24 24 24 24 24 25 25 25 25 25 25 25 25 25 25 25 25 25 25 25 25 25 25 25 25 25 25 25 25 25 25 25 25 25 25 25 25 26 26 26 26 26 26 26 26 26 26 26 26 26 27 27 27 27 27 27 27 27 27 27 27 27 27 27 27 27 27 27 27 27 27 27 27 27 27 27 27 27 27 27 27 27 27 27 27 27 27 27 27 27 27 27 27 27 27 27 28 28 28 28 28 28 28 28 28 28 29 29 29 29 29 29 29 29 29 29 29 29 29 29 29 29 29 29 29 29 29 28 29 29 30 32 33 34 35 36 36 36 36 36 36 36 36 36 36 35 35 35 35 35 34 34 34 34 33 33 33 33 33 32 32 32 32 32 32 32 32 32 32 32 32 31 31 31 31 31 32 32 32 32 33 33 34 35 35 36 36 36 37 37 37 37 38 39 40 42 43 43 44 44 44 44 44 43 43 42 42 41 41 40 40 40 39 39 39 39 39 39 39 39 39 39 39 39 39 40 40 40 41 41 41 42 42 43 43 43 44 44 45 45 45 45 45 45 45 45 45 45 44 44 44 44 44 44 45 45 45 45 45 45 44 44 44 44 44 43 43 43 43 42 42 42 42 42 42 43 43 43 43 44 44 45 45 45 45 46 46 46 47 47 47 48 48 48 48 48 48 48 48 48 48 48 48 48 48 48 49 50 51 52 52 52 52 52 52 51 51 51 51 51 51 50 51 51 52 52 53 53 53 53 53 53 52 51 50 49 47 45 43 41 40 39 38 37 36 36 35 35 34 34 33 33 33 32 32 32 32 31 31 31 31 31 31 31 30 30 30 30 29 29 28 28 28 28 28 28 28 27 27 27 27 27 27 27 27 26 26 26 26 26 26 26 26 26 26 26 26 26 26 26 26 26 25 25 25 26 26 26 26 26 26 26 26 26 25 25 25 25 25 25 25 25 25 25 26 26 26 26 26 26 26 26 26 26 25 25 25 24 24 24 24 24 24 24 24 24 24 24 24 24 24 24 24 24 24 24 24 25 25 25 25 25 25 25 25 25 25 25 25 25 25 25 25 25 24 24 24 24 24 24 24 23 23 23 23 23 23 23 22 22 22 22 22 22 21 21 21 20 20 19 19 18 18 17 17 16 15 14 14 14 13 13 13 13 13 13 13 13 13 13 13 13 13 13 13 13 13 13 13 13 12 12 12 12 12 12 12 12 13 14 16 19 22 25 27 28 28 28 28 29 29 29 29 29 30 30 31 32 33 34 34 35 36 37 38 40 41 42 42 43 43 43 43 42 42 42 42 41 41 41 40 40 40 40 39 39 39 39 38 38 37 37 36 34 33 32 29 26 23 22 21 21 21 22 22 22 22 22 22 22 23 23 23 23 23 23 23 23 23 23 23 23 23 23 23 23 23 23 23 23 24 24 24 24 24 24 25 25 25 25 26 26 26 27 27 27 27 28 28 28 28 28 28 28 28 28 28 28 28 28 28 27 27 27 27 27 27 27 27 27 27 27 27 27 27 27 27 27 27 27 27 27 26 26 26 26 26 26 26 26 26 26 25 25 25 25 25 25 25 25 25 25 24 24 24 24 24 24 23 23 22 22 21 21 21 21 21 21 21 21 21 20 20 20 20 20 19 19 19 19 19 19 19 19 19 19 19 19 19 19 18 18 18 18 18 18 18 18 18 18 18 18 18 18 18 17 17 17 17 17 17 17 17 17 17 17 17 17 17 17 17 17 17 17 16 16 16 17 17 17 17 17 17 17 17 17 17 16 16 16 16 16 16 16 16 16 16 16 16 16 16 16 16 16 16 16 16 16 16 16 16 16 16 16 16 16 16 16 16 16 16 16 16 16 16 16 16 16 16 16 16 16 16 16 16 16 16 16 16 16 16 16 16 16 16 16 16 16 16 16 16 16 16 15 15 15 15 15 15 15 15 15 15 14 14 14 13 13 13 13 13 13 13 13 13.362296
15 15 15 15 15 16 16 16 16 17 17 17 18 18 18 18 19 19 19 19 19 19 19 19 20 20 20 20 21 21 21 21 21 21 21 21 22 22 22 22 22 22 22 22 22 22 22 22 22 22 22 22 22 22 22 22 22 22 22 22 22 22 22 22 22 22 22 22 23 23 23 23 23 23 23 23 23 23 23 23 23 23 23 23 24 24 24 24 24 24 24 24 24 24 24 24 24 24 24 24 24 24 24 24 24 24 24 24 24 24 24 24 24 24 24 24 24 24 24 24 24 24 24 24 24 24 24 24 24 24 24 24 24 24 24 24 24 24 24 24 24 25 25 24 24 24 24 24 25 25 25 25 25 25 25 25 25 25 25 25 25 25 25 25 25 25 25 25 25 25 25 25 25 25 25 25 25 25 26 26 26 26 26 26 26 26 26 26 26 26 26 26 26 26 26 27 27 27 27 27 27 27 27 27 27 27 27 27 27 27 27 27 27 27 27 27 27 27 27 27 27 27 27 27 27 27 27 27 27 27 27 27 27 27 27 27 27 27 27 27 27 28 28 28 28 28 28 29 29 29 29 29 29 29 29 29 29 29 29 29 29 29 29 29 29 29 29 29 29 29 29 29 29 29 29 30 32 33 35 35 36 36 36 36 36 36 36 36 36 36 36 35 35 35 35 35 34 34 34 34 33 33 33 33 32 32 32 32 32 32 32 32 32 32 32 32 32 31 31 31 31 32 32 32 32 33 33 34 35 35 36 36 37 37 37 37 37 38 39 41 42 43 43 44 44 44 44 44 43 43 42 42 41 40 40 40 39 39 39 38 38 38 38 39 39 39 39 39 39 39 40 40 40 41 41 42 42 42 43 43 44 44 45 45 46 46 46 46 46 46 46 45 45 45 44 44 44 44 45 45 46 46 45 45 45 44 44 44 44 43 43 43 43 42 42 42 42 42 42 42 43 43 43 43 44 44 44 45 45 45 45 46 46 46 47 47 47 48 48 48 48 48 48 48 48 48 48 48 48 48 48 49 51 51 52 52 52 52 52 52 52 52 51 51 51 51 51 51 51 52 52 53 53 53 53 53 53 52 51 50 49 47 45 43 41 39 39 38 37 37 36 36 35 35 34 34 33 33 33 32 32 32 32 31 31 31 31 31 31 31 31 30 30 30 29 29 28 28 28 28 28 28 28 27 27 27 27 27 27 27 27 27 27 27 27 27 27 26 26 26 26 26 26 26 26 26 26 26 26 26 26 26 26 26 26 26 26 26 26 26 26 25 25 25 25 25 25 25 25 25 25 25 25 25 25 25 25 25 25 25 25 25 25 24 24 24 24 24 24 24 24 24 24 24 24 24 24 24 25 25 25 25 25 25 26 26 26 26 26 26 26 26 25 25 25 25 25 25 25 25 25 25 24 24 24 24 24 23 23 23 23 23 23 23 22 22 22 22 22 21 21 21 20 20 19 19 18 18 17 17 16 15 14 14 14 13 13 13 13 13 13 13 13 13 13 13 13 13 13 13 13 13 13 13 13 13 13 13 12 12 13 13 12 13 14 16 21 25 29 31 32 32 33 33 33 33 34 34 34 34 35 35 36 36 37 38 38 39 39 40 41 42 42 43 43 43 43 43 43 42 42 42 42 41 41 41 41 41 40 40 40 40 40 40 39 39 38 37 36 35 33 31 26 23 22 21 21 22 22 22 22 22 22 22 23 23 23 23 23 23 23 23 23 23 23 24 24 24 24 24 24 24 25 25 25 25 25 26 26 26 26 27 27 27 27 27 28 28 28 28 28 29 29 29 29 29 29 29 29 29 28 28 28 28 28 28 28 28 28 28 28 28 28 28 28 28 28 27 27 27 27 27 27 27 27 27 27 27 26 26 26 26 26 26 26 26 26 26 25 25 25 25 25 25 25 25 25 25 24 24 24 24 24 23 23 22 22 22 21 21 21 21 21 21 21 21 21 20 20 20 20 20 19 19 19 19 19 19 19 19 19 19 19 19 19 18 18 18 18 18 18 18 18 18 18 18 18 18 18 18 18 17 17 17 17 17 17 17 17 17 17 17 17 17 17 17 17 17 17 17 17 17 17 17 17 17 17 17 17 17 17 16 16 16 16 16 16 16 16 16 16 16 16 16 16 16 16 16 16 16 16 16 16 16 16 16 16 16 16 16 16 16 16 16 16 16 16 16 16 16 16 16 16 16 16 16 16 16 16 16 16 16 16 16 16 16 16 16 16 16 16 16 16 16 16 16 16 16 16 15 15 15 15 15 15 15 15 15 14 14 14 13 13 13 13 13 13 13 13 13.363388
15 15 15 15 15 16 16 16 16 17 17 17 18 18 18 18 19 19 19 19 19 19 19 20 20 20 20 20 21 21 21 21 21 21 21 22 22 22 22 22 22 22 22 22 22 22 22 22 22 22 22 22 22 22 22 22 22 22 22 22 22 22 22 22 22 22 22 23 23 23 23 23 23 23 23 23 23 23 23 23 23 23 23 24 24 24 24 24 24 24 24 24 24 24 24 24 24 24 24 24 24 24 24 24 24 24 24 24 24 24 24 24 24 24 25 25 25 25 24 24 24 24 24 24 24 24 24 24 24 24 24 24 24 24 24 24 24 24 24 24 25 25 25 25 25 24 24 25 25 25 25 25 25 25 25 25 25 25 25 25 25 25 25 25 25 25 25 25 25 25 25 25 25 25 25 25 26 26 26 26 26 26 26 26 26 26 26 26 26 26 26 26 26 26 27 27 27 27 27 27 27 27 27 27 27 27 27 27 27 27 27 27 27 27 27 27 27 27 27 27 27 27 27 27 27 27 27 27 27 27 27 27 27 27 27 27 27 27 27 27 27 28 28 28 28 28 28 29 29 29 29 29 29 29 29 29 29 29 29 29 29 29 29 29 29 29 29 29 29 29 29 29 29 29 29 31 32 34 35 35 36 36 36 36 36 36 36 36 36 36 36 36 35 35 35 35 34 34 34 34 33 33 33 33 32 32 32 32 32 32 32 32 32 32 32 32 32 32 31 31 32 32 32 32 32 33 34 34 35 36 36 37 37 37 37 37 37 38 39 41 43 43 43 44 44 44 44 44 43 43 42 41 41 40 40 39 39 39 38 38 38 38 38 38 38 38 39 39 39 39 40 40 40 41 41 42 42 43 43 44 44 45 45 46 46 46 46 46 46 46 46 46 45 45 45 44 44 45 45 45 46 46 46 45 45 44 44 44 44 43 43 43 43 42 42 42 42 42 42 43 43 43 43 43 44 44 44 44 45 45 45 45 46 46 46 47 47 47 48 48 48 48 48 48 48 48 48 48 48 48 48 49 51 52 52 52 52 52 52 52 52 52 52 51 51 51 51 51 51 52 52 53 53 53 53 53 53 52 51 50 49 47 44 42 40 39 39 38 37 37 36 36 35 35 34 34 34 33 33 33 32 32 32 32 32 31 31 31 31 31 31 31 30 30 29 29 28 28 28 28 28 28 28 28 28 27 27 27 27 27 27 27 27 27 27 27 27 27 27 26 26 26 26 26 26 26 26 26 26 26 26 26 26 26 26 26 26 26 26 26 26 25 25 25 25 25 24 24 24 24 24 24 24 24 24 25 25 25 25 25 25 25 25 25 24 24 24 24 24 24 24 24 24 24 24 25 25 25 25 25 25 26 26 26 26 26 26 26 26 26 26 26 26 26 26 26 26 26 25 25 25 25 25 24 24 24 24 24 23 23 23 23 23 23 23 22 22 22 22 22 21 21 20 20 19 19 18 18 17 17 16 15 14 14 14 14 13 13 13 13 13 13 13 13 13 13 13 13 13 13 13 13 13 13 13 13 13 13 13 13 13 13 13 13 14 17 23 28 32 35 36 37 37 38 38 38 38 38 39 39 39 40 40 40 41 41 41 41 42 42 42 43 43 44 44 44 43 43 43 42 42 42 42 42 42 41 41 41 41 41 41 41 41 41 41 40 40 39 38 37 35 32 27 23 22 22 22 22 22 22 22 22 22 22 23 23 23 24 24 24 24 24 24 24 24 24 24 25 25 25 25 26 26 26 26 27 27 27 28 28 28 28 29 29 29 29 29 29 30 30 30 30 30 30 30 30 30 30 29 29 29 29 29 29 29 28 28 28 28 28 28 28 28 28 28 28 28 28 28 28 28 28 28 28 27 27 27 27 27 27 26 26 26 26 26 26 26 26 25 25 25 25 25 25 25 25 25 25 24 24 24 24 24 24 23 23 22 22 22 21 21 21 21 21 21 21 21 20 20 20 20 20 19 19 19 19 19 19 19 19 19 19 19 19 19 19 18 18 18 18 18 18 18 18 18 18 18 18 18 18 18 18 18 17 17 17 17 17 17 17 17 17 17 17 17 17 17 17 17 17 17 17 17 17 17 17 17 17 17 17 17 16 16 16 16 16 16 16 16 16 16 16 16 16 16 16 16 16 16 16 16 16 16 16 16 16 16 16 16 16 16 16 16 16 16 16 16 16 16 16 16 16 16 16 16 16 16 16 16 16 16 16 16 16 16 16 16 16 16 16 16 16 16 16 16 16 16 16 16 15 15 15 15 15 15 15 15 15 14 14 14 13 13 13 13 13 13 13 13 13.364479
15 15 15 15 15 15 16 16 16 17 17 17 18 18 18 18 18 19 19 19 19 19 19 19 20 20 20 20 21 21 21 21 21 21 21 22 22 22 22 22 22 22 22 22 22 22 22 22 22 22 22 22 22 22 22 22 22 22 22 22 22 22 22 22 22 22 22 23 23 23 23 23 23 23 23 23 23 23 23 23 23 23 24 24 24 24 24 24 24 24 24 24 24 24 24 24 24 24 24 24 24 24 24 24 24 24 25 25 24 25 25 25 25 25 25 25 25 25 25 25 24 24 24 24 24 24 24 24 24 24 24 24 24 24 24 24 24 24 24 25 25 25 25 25 25 25 25 25 25 25 25 25 25 25 25 25 25 25 25 25 25 25 25 25 25 25 25 25 25 25 25 25 25 25 25 26 26 26 26 26 26 26 26 26 26 26 26 26 26 26 26 26 26 26 26 27 27 27 27 27 27 27 27 27 27 27 27 27 27 27 27 27 27 27 27 27 27 27 27 27 27 27 27 27 27 27 27 27 27 27 27 27 27 27 27 27 27 27 27 27 27 28 28 28 28 28 28 29 29 29 29 29 29 29 29 29 29 29 29 29 29 29 29 29 29 29 29 29 29 29 29 29 29 29 30 31 33 34 35 36 36 36 36 36 36 36 36 36 36 36 36 36 35 35 35 35 34 34 34 34 33 33 33 33 32 32 32 32 32 32 32 32 32 32 32 32 32 32 32 32 32 32 32 32 32 33 34 34 35 36 36 37 37 37 37 37 37 38 40 41 43 43 44 44 44 44 44 44 43 43 42 41 40 40 39 39 39 38 38 38 38 38 38 38 38 38 38 39 39 39 39 40 40 41 41 42 42 43 44 44 45 45 46 46 46 47 47 47 47 47 46 46 46 45 45 45 45 45 45 46 46 46 46 45 45 45 44 44 44 43 43 43 43 42 42 42 42 42 42 43 43 43 43 43 44 44 44 44 45 45 45 45 45 46 46 47 47 47 47 47 48 48 48 48 48 48 48 48 48 48 48 49 51 52 52 52 52 52 52 52 52 52 52 52 51 51 51 51 51 52 52 53 53 53 53 53 52 52 51 50 49 47 44 42 40 39 39 38 38 37 37 36 36 35 35 34 34 34 33 33 33 32 32 32 32 32 32 31 31 31 31 31 31 30 29 29 29 28 28 28 28 28 28 28 28 28 27 27 27 27 27 27 27 27 27 27 27 27 27 27 27 26 26 26 26 26 26 26 26 26 26 26 26 26 26 27 27 27 26 26 26 25 25 24 24 24 23 23 23 23 23 23 23 23 23 24 24 24 24 24 24 25 24 24 24 24 24 24 24 24 24 25 25 25 25 25 25 25 26 26 26 26 27 27 27 27 27 27 27 27 27 27 27 27 27 26 26 26 26 26 25 25 25 25 24 24 24 24 24 23 23 23 23 23 23 23 22 22 22 22 21 21 20 20 19 19 18 18 17 17 16 15 15 14 14 14 14 13 13 13 13 13 13 13 13 13 13 13 13 13 13 13 13 13 13 13 13 13 13 13 13 13 13 13 15 18 25 31 35 38 39 40 40 41 41 41 41 41 41 41 42 42 42 42 42 42 42 42 43 43 43 43 44 44 44 44 43 43 43 43 43 42 42 42 42 42 42 42 42 42 42 42 42 42 41 41 41 40 39 38 36 33 27 24 23 22 22 22 22 22 22 23 23 23 23 23 24 24 24 24 24 25 25 25 25 25 26 26 26 27 27 27 28 28 28 29 29 29 29 30 30 30 30 30 30 30 30 30 30 30 30 30 30 30 30 30 30 30 30 30 29 29 29 29 29 29 29 29 29 29 29 29 28 28 28 28 28 28 28 28 28 28 28 28 28 27 27 27 27 27 27 26 26 26 26 26 26 26 26 25 25 25 25 25 25 25 25 25 24 24 24 24 24 24 23 23 22 22 22 21 21 21 21 21 21 21 21 21 20 20 20 20 20 19 19 19 19 19 19 19 19 19 19 19 19 19 18 18 18 18 18 18 18 18 18 18 18 18 18 18 18 18 18 17 17 17 17 17 17 17 17 17 17 17 17 17 17 17 17 17 17 17 17 17 17 17 17 17 17 17 17 17 16 16 16 16 16 16 16 16 16 16 16 16 16 16 16 16 16 16 16 16 16 16 16 16 16 16 16 16 16 16 16 16 16 16 16 16 16 16 16 16 16 16 16 16 16 16 16 16 16 16 16 16 16 16 16 16 16 16 16 16 16 16 16 16 16 16 16 16 15 15 15 15 15 15 15 15 14 14 14 13 13 13 13 13 13 13 13 13.39362
14 14 14 15 15 15 16 16 16 17 17 17 18 18 18 18 18 19 19 19 19 19 19 19 20 20 20 20 21 21 21 21 21 21 21 22 22 22 22 22 22 22 22 22 22 22 22 22 22 22 22 22 22 22 22 22 22 22 22 22 22 22 22 22 22 22 22 23 23 23 23 23 23 23 23 23 23 23 23 23 23 24 24 24 24 24 24 24 24 24 24 24 24 24 24 24 24 24 25 25 25 25 25 25 25 25 25 25 25 25 25 25 25 25 25 25 25 25 25 25 25 25 25 25 25 25 25 25 25 24 24 24 24 24 24 24 24 24 25 25 25 25 25 25 25 25 25 25 25 25 25 25 25 25 25 25 25 25 25 25 25 25 25 25 25 25 25 25 25 25 25 25 25 26 26 26 26 26 26 26 26 26 26 26 26 26 26 26 26 26 26 26 26 26 26 26 26 27 27 27 27 27 27 27 27 27 27 27 27 27 27 27 27 27 27 27 27 27 27 27 27 27 27 27 27 27 27 27 27 27 27 27 27 27 27 27 27 27 27 27 27 28 28 28 28 28 28 29 29 29 29 29 29 29 29 29 29 29 29 29 29 29 29 29 29 29 29 29 29 29 29 29 29 30 30 32 33 34 35 36 36 36 36 36 36 36 36 36 36 36 36 36 36 35 35 35 35 34 34 34 34 33 33 33 32 32 32 32 32 32 32 32 32 32 32 32 32 32 32 32 32 32 32 32 33 33 34 35 35 36 36 37 37 37 37 37 37 38 40 41 43 44 44 44 44 44 44 44 43 42 42 41 40 40 39 39 38 38 38 37 37 38 38 38 38 38 38 38 39 39 39 40 40 41 41 42 43 43 44 45 45 46 46 47 47 47 47 47 47 47 47 47 46 46 45 45 45 45 46 46 46 46 46 46 45 45 44 44 44 43 43 43 43 42 42 42 42 42 42 43 43 43 43 43 44 44 44 44 44 45 45 45 45 46 46 46 47 47 47 47 47 47 47 47 47 47 47 47 47 48 48 49 51 52 52 52 52 52 52 52 52 52 52 52 52 51 51 51 52 52 53 53 53 53 53 53 52 52 51 50 49 46 44 42 40 39 39 39 38 38 37 37 36 36 35 35 35 34 34 33 33 33 32 32 32 32 32 32 32 31 31 31 31 30 30 29 29 29 28 28 28 28 28 28 28 28 28 28 27 27 27 27 27 27 27 27 27 27 27 27 27 27 27 26 26 26 26 26 26 26 26 26 26 27 27 27 27 27 27 26 26 25 24 24 24 23 23 22 22 22 22 22 22 22 22 22 23 23 23 24 24 24 24 24 24 24 24 24 25 25 25 25 25 25 25 25 26 26 26 27 27 27 28 28 28 28 28 28 28 28 28 28 27 27 27 27 27 27 26 26 26 25 25 25 25 24 24 24 24 24 23 23 23 23 23 23 23 22 22 22 21 21 21 20 19 19 19 18 18 17 16 16 15 14 14 14 14 14 13 13 13 13 13 13 13 13 13 14 14 14 14 13 13 13 13 13 13 13 13 13 13 13 13 13 15 19 27 33 38 42 42 43 43 44 44 44 44 44 44 44 44 44 44 44 44 44 44 44 44 44 44 44 44 44 44 44 43 43 43 43 43 43 43 43 43 43 42 42 42 42 42 42 42 43 42 42 42 41 40 39 37 33 28 24 23 22 22 22 22 23 23 23 23 23 23 24 24 25 25 25 25 25 26 26 26 26 27 27 28 28 29 29 29 30 30 30 31 31 31 31 31 31 31 31 31 31 31 31 31 31 31 31 31 31 31 31 31 31 30 30 30 30 29 29 29 29 29 29 29 29 29 29 29 29 29 29 29 29 29 29 28 28 28 28 28 28 27 27 27 27 27 26 26 26 26 26 26 26 26 25 25 25 25 25 25 25 25 25 24 24 24 24 24 24 23 23 22 22 22 22 22 21 21 21 21 21 21 21 20 20 20 20 20 19 19 19 19 19 19 19 19 19 19 19 19 19 18 18 18 18 18 18 18 18 18 18 18 18 18 18 18 18 18 18 17 17 17 17 17 17 17 17 17 17 17 17 17 17 17 17 17 17 17 17 17 17 17 17 17 17 17 17 17 16 16 16 16 16 16 16 16 16 16 16 16 16 16 16 16 16 16 16 16 16 16 16 16 16 16 16 16 16 16 16 16 16 16 16 16 16 16 16 16 16 16 16 16 16 16 16 16 16 16 16 16 16 16 16 16 16 16 16 16 16 16 16 16 16 16 16 15 15 15 15 15 15 15 15 14 14 14 14 13 13 13 13 13 13 13 13.42276
14 14 14 14 15 15 15 16 16 16 17 17 18 18 18 18 18 18 19 19 19 19 19 19 20 20 20 20 20 21 21 21 21 21 21 22 22 22 22 22 22 22 22 22 22 22 22 22 22 22 22 22 22 22 22 22 22 22 22 22 22 22 22 22 22 22 23 23 23 23 23 23 23 23 23 23 23 23 23 24 24 24 24 24 24 24 24 24 24 24 24 24 24 24 24 24 24 25 25 25 25 25 25 25 25 25 25 25 25 25 25 25 25 25 25 25 25 25 25 25 25 25 25 25 25 25 25 25 25 25 25 25 24 24 24 24 24 25 25 25 25 25 25 25 25 25 25 25 25 25 25 25 25 25 25 25 25 25 25 25 25 25 25 25 25 25 25 25 25 25 25 25 26 26 26 26 26 26 26 26 26 26 26 26 26 26 26 26 26 26 26 26 26 26 26 26 26 26 26 27 27 27 27 27 27 27 27 27 27 27 27 27 27 27 27 27 27 27 27 27 27 27 27 27 27 27 27 27 27 27 27 27 27 27 27 27 27 27 27 27 27 27 28 28 28 28 28 28 29 29 29 29 29 29 29 29 29 29 29 29 29 29 29 29 29 29 29 29 29 29 29 30 30 30 31 32 34 35 36 36 36 36 36 36 36 36 36 36 36 36 36 36 36 35 35 35 35 35 34 34 34 33 33 33 32 32 32 32 32 32 32 32 32 32 32 32 32 32 32 32 32 32 32 32 33 33 34 35 35 36 36 37 37 37 37 37 38 39 40 42 43 44 44 44 44 44 44 43 43 42 41 41 40 39 39 39 38 38 37 37 37 38 38 38 38 38 38 38 39 39 39 40 40 41 41 42 43 43 44 45 45 46 47 47 47 47 47 48 48 47 47 47 47 46 46 46 45 46 46 46 46 46 46 46 45 45 44 44 44 43 43 43 43 42 42 42 42 42 43 43 43 43 43 43 44 44 44 44 44 45 45 45 45 46 46 46 46 47 47 47 47 47 47 47 47 47 47 47 47 47 48 49 50 51 52 53 53 53 53 53 53 53 52 52 52 52 52 52 52 52 53 53 53 53 53 53 52 52 51 50 48 46 44 42 41 40 39 39 39 38 38 37 37 36 36 35 35 35 34 34 33 33 33 33 33 32 32 32 32 32 32 31 31 30 30 29 29 29 29 29 29 29 29 28 28 28 28 28 28 28 27 27 27 27 27 27 27 27 27 27 27 27 27 27 27 27 27 26 26 26 26 27 27 27 27 27 27 27 27 27 26 25 24 24 23 23 22 22 22 22 22 22 22 22 22 22 23 23 23 24 24 24 24 24 25 25 25 25 25 25 25 25 25 25 26 26 26 27 27 27 28 28 28 29 29 29 29 29 28 28 28 28 28 28 28 28 27 27 27 27 26 26 25 25 25 25 24 24 24 24 24 24 23 23 23 23 23 23 22 22 22 21 21 21 20 20 19 19 18 18 17 16 15 14 14 14 14 14 14 13 13 13 13 13 13 14 14 14 14 14 14 14 14 13 13 13 13 13 13 13 13 13 13 14 16 20 28 35 40 43 44 44 45 45 45 45 45 45 45 45 45 45 45 45 45 44 44 44 44 44 44 44 44 44 44 44 44 43 43 43 43 43 43 43 43 43 43 43 43 43 43 43 43 43 43 43 42 42 41 40 37 33 28 24 23 22 22 22 23 23 23 23 23 23 24 24 25 25 25 26 26 26 27 27 27 28 28 29 29 29 30 30 31 31 31 31 32 32 32 32 32 32 32 32 32 32 32 32 32 32 32 31 31 31 31 31 31 31 31 30 30 30 30 30 30 29 29 29 29 29 29 29 29 29 29 29 29 29 29 29 29 28 28 28 28 28 28 27 27 27 27 27 26 26 26 26 26 26 26 25 25 25 25 25 25 25 25 25 25 24 24 24 24 24 23 23 22 22 22 22 22 22 21 21 21 21 21 21 20 20 20 20 20 19 19 19 19 19 19 19 19 19 19 19 19 19 18 18 18 18 18 18 18 18 18 18 18 18 18 18 18 18 18 18 18 17 17 17 17 17 17 17 17 17 17 17 17 17 17 17 17 17 17 17 17 17 17 17 17 17 17 17 17 17 16 16 16 16 16 16 16 16 16 16 16 16 16 16 16 16 16 16 16 16 16 16 16 16 16 16 16 16 16 16 16 16 16 16 16 16 16 16 16 16 16 17 17 17 16 16 16 16 16 16 16 16 16 16 16 16 16 16 16 16 16 16 16 16 16 16 15 15 15 15 15 15 15 15 15 14 14 14 13 13 13 13 13 13 13 13.458482
14 14 14 14 14 15 15 16 16 16 17 17 18 18 18 18 18 18 19 19 19 19 19 19 20 20 20 20 20 21 21 21 21 21 21 21 22 22 22 22 22 22 22 22 22 22 22 22 22 22 22 22 22 22 22 22 22 22 22 22 22 22 22 22 22 22 23 23 23 23 23 23 23 23 23 23 23 23 24 24 24 24 24 24 24 24 24 24 24 24 24 24 24 24 24 24 25 25 25 25 25 25 25 25 25 25 25 25 25 25 25 25 25 25 25 25 25 25 25 25 25 25 25 25 25 25 25 25 25 25 25 25 25 25 25 25 25 25 25 25 25 25 25 25 25 25 25 25 25 25 25 25 25 25 25 25 25 25 25 25 25 25 25 25 25 25 25 25 25 26 26 26 26 26 26 26 26 26 26 26 26 26 26 26 26 26 26 26 26 26 26 26 26 26 26 26 26 26 26 27 27 27 27 27 27 27 27 27 27 27 27 27 27 27 27 27 27 27 27 27 27 27 27 27 27 27 27 27 27 27 27 27 27 27 27 27 27 27 27 27 27 27 27 28 28 28 28 28 29 29 29 29 29 29 29 29 29 29 29 29 29 29 29 29 29 29 30 30 30 30 30 30 30 31 31 33 34 35 36 36 36 36 36 36 36 36 36 36 36 36 36 36 36 36 35 35 35 35 34 34 34 33 33 33 32 32 32 32 32 32 32 32 32 32 32 32 32 32 32 32 32 32 32 32 33 33 34 35 35 36 36 37 37 37 37 38 38 39 41 42 43 44 44 44 44 44 44 43 43 42 41 40 40 39 39 38 38 38 37 37 37 37 38 38 38 38 38 38 39 39 39 40 40 41 41 42 43 44 44 45 46 46 47 47 48 48 48 48 48 48 48 47 47 47 46 46 46 46 46 46 46 46 46 46 45 45 44 44 44 43 43 43 43 43 42 42 42 42 43 43 43 43 43 44 44 44 44 44 44 45 45 45 45 46 46 46 46 46 47 47 47 47 47 47 47 47 47 47 47 47 48 49 50 51 52 53 53 53 53 53 53 53 53 53 52 52 52 52 52 52 53 53 53 53 53 53 52 52 51 50 48 46 44 42 41 40 40 40 39 39 38 38 37 37 36 36 36 35 35 34 34 33 33 33 33 33 33 32 32 32 32 32 31 31 30 29 29 29 29 29 29 29 29 29 28 28 28 28 28 28 28 27 27 27 27 28 28 28 28 28 28 28 27 27 27 27 27 27 27 27 27 27 27 27 27 27 28 28 27 27 26 25 24 24 23 23 22 22 22 22 22 22 22 22 22 22 22 23 23 24 24 24 24 25 25 25 25 25 25 25 25 25 26 26 26 26 27 27 28 28 28 29 29 30 30 30 29 29 29 29 29 29 29 28 28 28 28 28 27 27 27 26 26 25 25 25 25 24 24 24 24 24 24 23 23 23 23 23 23 22 22 22 21 21 21 21 20 20 19 19 18 17 16 14 14 14 14 14 14 14 14 14 14 14 14 14 14 14 14 14 14 14 14 14 13 13 13 13 13 13 13 13 13 14 16 21 29 36 42 45 45 46 46 46 46 46 46 46 45 45 45 45 45 45 45 45 45 44 44 44 44 44 44 44 44 44 44 44 44 44 44 43 43 43 43 43 43 43 43 43 43 43 43 43 43 43 43 42 42 40 37 34 28 24 23 22 22 22 23 23 23 23 23 23 24 24 25 26 26 27 27 27 28 28 29 29 30 30 30 31 31 32 32 32 32 32 32 32 33 33 33 33 33 33 33 32 32 32 32 32 32 32 32 32 31 31 31 31 31 31 30 30 30 30 30 30 30 30 29 29 29 29 29 29 29 29 29 29 29 29 29 29 28 28 28 28 28 27 27 27 27 27 27 26 26 26 26 26 26 26 25 25 25 25 25 25 25 25 25 24 24 24 24 24 23 23 23 22 22 22 22 22 22 21 21 21 21 21 21 20 20 20 20 20 19 19 19 19 19 19 19 19 19 19 19 19 18 18 18 18 18 18 18 18 18 18 18 18 18 18 18 18 18 18 18 18 18 17 17 17 17 17 17 17 17 17 17 17 17 17 17 17 17 17 17 17 17 17 17 17 17 17 17 17 17 16 17 17 17 16 16 16 16 16 16 16 16 16 16 16 16 16 16 16 16 16 16 16 16 16 16 16 16 16 16 17 17 17 17 17 17 17 17 17 17 17 17 17 17 16 16 16 16 16 16 16 16 16 16 16 16 16 16 16 16 16 16 16 16 16 16 15 15 15 15 15 15 15 15 14 14 14 13 13 13 13 13 13 13 13.494204
14 14 14 14 14 15 15 15 16 16 17 17 17 18 18 18 18 18 19 19 19 19 19 19 20 20 20 20 20 21 21 21 21 21 21 21 22 22 22 22 22 22 22 22 22 22 22 22 22 22 22 22 22 22 22 22 22 22 22 22 22 22 22 22 22 23 23 23 23 23 23 23 23 23 23 23 23 23 24 24 24 24 24 24 24 24 24 24 24 24 24 24 24 24 24 25 25 25 25 25 25 25 25 25 25 25 25 25 25 25 25 25 25 25 25 25 25 25 25 25 25 25 25 25 25 25 25 25 25 25 25 25 25 25 25 25 25 25 25 25 25 25 25 25 25 25 25 25 25 25 25 25 25 25 25 25 25 25 26 26 26 26 26 26 26 26 26 26 26 26 26 26 26 26 26 26 26 26 26 26 26 26 26 26 26 26 26 26 26 26 26 26 26 26 26 26 26 26 26 27 27 27 27 27 27 27 27 27 27 28 28 28 28 28 28 27 27 27 27 27 27 27 27 27 27 27 27 27 27 27 27 27 27 27 27 27 27 27 27 27 27 27 27 27 28 28 28 28 29 29 29 29 29 29 30 30 30 30 30 30 30 30 30 30 30 30 30 30 30 30 30 30 30 31 32 33 34 35 36 36 36 36 36 36 36 36 36 36 36 36 36 36 36 36 36 35 35 35 35 34 34 34 33 33 32 32 32 32 32 32 32 32 32 32 32 32 32 32 32 32 32 32 32 32 33 34 34 35 35 36 36 37 37 37 37 38 38 39 41 42 44 44 44 44 44 44 44 43 43 42 41 40 40 39 39 38 38 38 37 37 37 37 38 38 38 38 38 38 39 39 39 40 40 41 42 42 43 44 44 45 46 46 47 47 48 48 48 48 48 48 48 48 47 47 46 46 46 46 46 47 47 46 46 46 45 45 44 44 44 43 43 43 43 43 42 42 42 43 43 43 43 43 43 44 44 44 44 44 44 45 45 45 45 46 46 46 46 46 47 47 47 47 47 47 47 47 47 47 47 47 48 49 50 51 52 53 53 53 53 53 53 53 53 53 53 53 52 52 53 53 53 53 54 53 53 53 52 52 51 50 48 46 44 42 41 40 40 40 40 39 39 38 38 38 37 37 36 36 35 35 34 34 34 34 33 33 33 33 33 33 32 32 32 31 30 30 29 29 29 29 29 29 29 29 29 28 28 28 28 28 28 28 28 28 28 28 28 28 28 28 28 28 28 28 28 28 28 28 28 27 27 28 28 28 28 28 28 28 28 27 26 26 25 24 24 23 23 22 22 22 22 22 22 22 22 22 22 23 23 24 24 25 25 25 25 25 25 25 26 26 26 26 26 26 27 27 28 28 28 29 29 30 30 30 30 30 30 30 29 29 29 29 29 29 29 29 28 28 28 27 27 26 26 26 25 25 25 25 24 24 24 24 24 24 23 23 23 23 23 23 23 23 23 23 23 23 23 22 22 21 20 18 17 15 14 14 14 14 14 14 14 14 14 14 14 14 14 14 14 14 14 14 14 14 14 13 13 13 13 13 13 13 13 14 17 21 29 37 43 46 46 46 46 46 46 46 46 46 46 45 45 45 45 45 45 45 45 45 44 44 44 44 44 44 44 44 44 44 44 44 44 44 44 44 44 44 44 44 44 44 44 44 44 44 44 43 43 43 42 40 37 34 28 24 23 23 23 23 23 23 23 23 24 24 24 25 26 26 27 28 28 29 29 30 30 30 31 31 31 32 32 32 33 33 33 33 33 33 33 33 33 33 33 33 33 33 33 32 32 32 32 32 32 32 32 32 31 31 31 31 31 31 30 30 30 30 30 30 30 30 30 29 29 29 29 29 29 29 29 29 29 29 28 28 28 28 28 27 27 27 27 27 27 27 26 26 26 26 26 26 26 25 25 25 25 25 25 25 25 24 24 24 24 24 23 23 23 22 22 22 22 22 22 22 21 21 21 21 21 20 20 20 20 20 20 19 19 19 19 19 19 19 19 19 19 19 19 18 18 18 18 18 18 18 18 18 18 18 18 18 18 18 18 18 18 18 18 18 17 17 17 17 17 17 17 17 17 17 17 17 17 17 17 17 17 17 17 17 17 17 17 17 17 17 17 17 17 17 17 17 16 16 16 16 16 16 16 16 16 16 16 16 16 16 16 16 16 16 16 16 16 16 17 17 17 17 17 17 17 16 16 16 17 17 17 17 17 17 17 17 16 16 16 16 16 16 16 16 16 16 16 16 16 16 16 16 16 16 16 16 16 15 15 15 15 15 15 15 15 14 14 14 14 13 13 13 13 13 13 13.52683
14 14 14 14 14 14 15 15 16 16 17 17 17 18 18 18 18 18 19 19 19 19 19 19 20 20 20 20 20 21 21 21 21 21 21 21 22 22 22 22 22 22 22 22 22 22 22 22 22 22 22 22 22 22 22 22 22 22 22 22 22 22 22 22 23 23 23 23 23 23 23 23 23 23 23 23 23 24 24 24 24 24 24 24 24 24 24 24 24 24 24 24 24 24 25 25 25 25 25 25 25 25 25 25 25 25 25 25 25 25 25 25 25 25 25 25 25 25 25 25 25 25 25 25 25 25 25 25 25 25 25 25 25 25 25 25 25 25 25 25 25 25 25 25 25 25 25 25 25 25 25 25 25 26 26 26 26 26 26 26 26 26 26 26 26 26 26 26 26 26 26 26 26 26 26 26 26 26 26 26 26 26 26 26 26 26 26 26 26 26 26 26 26 26 26 26 26 26 27 27 27 27 27 27 27 27 27 28 28 28 28 28 28 28 28 28 27 27 27 27 27 27 27 27 27 27 27 27 27 27 27 27 27 27 27 27 27 27 27 27 27 27 27 27 27 28 28 28 28 29 29 29 29 30 30 30 30 30 30 30 30 30 30 30 30 30 30 30 30 30 30 31 31 32 33 34 35 36 36 36 37 37 36 36 36 36 36 36 36 36 36 36 36 36 36 35 35 35 35 34 34 34 33 33 33 32 32 32 32 32 32 32 32 32 32 32 32 32 32 32 32 32 32 32 33 34 34 35 35 36 36 37 37 37 37 38 38 39 41 43 44 44 44 44 44 44 44 43 42 42 41 40 39 39 38 38 38 37 37 37 37 37 38 38 38 38 38 38 39 39 39 40 40 41 42 42 43 44 45 45 46 47 47 48 48 48 48 48 48 48 48 48 48 47 47 47 46 46 47 47 47 47 46 46 45 45 44 44 44 43 43 43 43 43 42 42 43 43 43 43 43 43 43 44 44 44 44 44 45 45 45 45 45 46 46 46 46 46 46 47 47 47 47 47 47 47 47 47 47 47 48 48 50 51 52 53 53 53 53 54 54 54 54 53 53 53 53 53 53 53 54 54 54 54 53 53 52 52 51 50 48 46 44 42 41 41 41 40 40 40 40 39 39 38 38 37 37 36 36 35 35 34 34 34 34 34 34 33 33 33 33 32 32 31 30 30 29 29 29 29 29 29 29 29 29 29 29 28 28 28 28 28 28 28 28 29 29 29 29 29 29 29 29 29 29 29 29 29 28 28 28 28 28 28 29 29 29 29 29 28 27 26 25 24 24 23 23 22 22 22 22 22 22 22 22 22 23 23 23 24 24 25 25 26 26 26 26 26 26 26 26 26 27 27 27 28 28 29 29 30 30 30 31 31 31 31 30 30 30 30 30 30 29 29 29 29 29 29 28 28 27 27 26 26 26 25 25 25 25 24 24 24 24 24 24 23 23 23 23 23 24 24 24 25 25 25 25 25 25 24 22 20 18 16 15 14 14 14 14 14 14 14 14 14 14 14 14 15 15 15 15 14 14 14 14 14 14 13 13 13 13 13 14 15 17 22 30 38 44 47 47 47 47 47 46 46 46 46 46 45 45 45 45 45 45 45 45 45 45 45 45 45 44 44 44 44 44 44 44 44 44 44 44 44 44 44 44 44 44 44 44 44 44 44 44 44 43 43 42 40 37 34 29 24 23 23 23 23 23 23 23 24 24 24 25 26 27 27 28 29 30 30 31 31 31 32 32 32 32 33 33 33 33 33 33 33 33 33 33 33 33 33 33 33 33 33 33 33 33 33 32 32 32 32 32 32 32 32 31 31 31 31 31 30 30 30 30 30 30 30 30 30 29 29 29 29 29 29 29 29 29 29 29 28 28 28 28 28 27 27 27 27 27 27 26 26 26 26 26 26 26 26 25 25 25 25 25 25 25 25 24 24 24 24 24 23 23 22 22 22 22 22 22 22 22 21 21 21 21 21 20 20 20 20 20 20 20 20 19 19 19 19 19 19 19 19 19 19 18 18 18 18 18 18 18 18 18 18 18 18 18 18 18 18 18 18 18 18 18 17 17 17 17 17 17 17 17 17 17 17 17 17 17 17 17 17 17 17 17 17 16 16 16 16 17 17 17 17 17 17 17 16 16 16 16 16 16 16 16 16 16 16 16 16 16 16 16 16 17 17 17 17 17 17 17 17 17 17 17 16 16 16 16 16 17 17 17 17 17 17 17 17 17 17 17 17 16 16 16 16 16 16 16 16 16 16 16 16 16 16 16 15 15 15 15 15 15 15 15 15 14 14 14 13 13 13 13 13 13 13.559454
14 14 15 14 14 14 15 15 15 16 16 17 17 18 18 18 18 19 19 19 19 19 19 20 20 20 20 20 20 20 21 21 21 21 21 21 22 22 22 22 22 22 22 22 22 22 22 22 22 22 22 22 22 22 22 22 22 22 22 22 23 23 23 23 23 23 23 23 23 23 23 23 23 23 23 23 23 24 24 24 24 24 24 24 24 24 24 24 24 24 24 24 24 25 25 25 25 25 25 25 25 25 25 25 25 25 25 25 25 25 25 25 25 25 25 25 25 25 25 25 25 25 25 25 25 25 25 25 25 25 25 25 25 25 25 25 25 25 25 25 25 25 25 25 25 25 25 25 25 25 26 26 26 26 26 26 26 26 26 26 26 26 26 26 26 26 26 26 26 26 26 26 26 26 26 26 26 26 26 26 26 26 26 26 26 26 26 26 26 26 26 26 26 26 26 26 26 26 27 27 27 27 27 27 27 27 28 28 28 28 28 28 28 28 28 28 28 27 27 27 27 27 27 27 27 27 27 27 27 27 27 27 27 27 27 27 27 27 27 27 27 27 27 27 27 28 28 28 29 29 29 29 30 30 30 30 30 30 30 30 30 30 30 30 30 30 30 30 30 31 31 31 31 32 33 34 35 36 36 37 37 37 37 37 37 37 37 37 36 36 36 36 36 36 36 36 35 35 35 35 34 34 33 33 33 32 32 32 32 32 32 32 32 32 32 32 32 32 32 32 32 32 32 33 33 34 34 35 35 36 36 37 37 37 37 38 38 40 42 43 44 44 44 44 44 44 44 43 42 41 41 40 39 39 38 38 38 37 37 37 37 37 38 38 38 38 38 38 39 39 39 40 41 41 42 42 43 44 45 45 46 47 47 48 48 49 49 49 49 49 49 48 48 48 47 47 47 47 47 47 47 47 46 46 45 45 45 44 44 43 43 43 43 43 42 42 42 43 43 43 43 43 43 44 44 44 44 44 45 45 45 45 46 46 46 46 46 46 46 47 47 47 47 47 47 47 47 47 47 47 48 48 49 51 52 53 53 53 54 54 54 54 54 54 54 54 54 54 54 54 54 54 54 54 53 53 53 52 51 50 49 46 44 42 41 41 41 41 41 40 40 40 39 39 39 38 38 37 36 36 35 35 35 35 35 34 34 34 34 34 33 33 32 32 31 30 30 30 29 29 29 29 29 29 29 29 29 29 29 29 29 29 29 29 29 29 30 30 30 30 30 30 30 30 30 30 30 30 30 30 30 30 30 30 30 30 31 31 30 29 28 27 26 25 24 23 23 23 22 22 22 22 23 23 23 23 23 23 23 24 25 25 26 26 27 27 27 27 27 27 27 27 28 28 28 29 29 30 30 30 31 31 31 31 31 31 31 30 30 30 30 30 30 30 29 29 29 29 29 28 28 27 27 26 26 26 25 25 25 25 25 24 24 24 24 24 23 24 24 25 26 27 28 29 29 30 30 30 29 28 25 23 20 17 16 14 14 14 14 14 14 14 14 14 14 14 15 15 15 15 15 15 14 14 14 14 14 14 13 13 14 14 14 15 18 22 30 38 44 48 48 47 47 47 47 46 46 46 46 45 45 45 45 45 45 45 45 45 45 45 45 45 45 45 45 45 45 45 45 45 45 45 44 44 44 44 44 44 44 44 44 44 44 44 44 44 43 43 42 40 37 34 29 25 24 23 23 23 23 24 24 24 25 25 26 27 28 29 29 30 31 31 32 32 32 32 33 33 33 33 33 33 33 34 34 33 33 33 33 33 33 33 33 33 33 33 33 33 33 33 33 33 32 32 32 32 32 32 32 31 31 31 31 31 31 30 30 30 30 30 30 30 30 29 29 29 29 29 29 29 29 29 29 29 28 28 28 28 27 27 27 27 27 27 27 26 26 26 26 26 26 26 25 25 25 25 25 25 25 25 24 24 24 24 24 23 23 22 22 22 22 22 22 22 22 22 21 21 21 21 20 20 20 20 20 20 20 20 19 19 19 19 19 19 19 19 19 19 19 19 18 18 18 18 18 18 18 18 18 18 18 18 18 18 18 18 18 18 18 17 17 17 17 17 17 17 17 17 17 17 17 17 17 17 17 17 17 17 17 17 17 17 16 16 16 16 17 17 17 16 16 16 16 16 16 16 16 16 16 16 16 16 16 16 15 15 15 15 15 15 16 16 16 16 16 16 16 16 16 16 17 17 17 17 17 17 17 17 17 17 17 17 17 17 17 17 17 16 16 16 16 16 16 16 16 16 16 16 16 16 16 15 15 15 15 15 15 15 15 15 14 14 14 13 13 13 13 13 13 13.573149
14 15 15 15 14 14 14 15 15 16 16 17 17 17 18 18 18 19 19 19 19 19 19 20 20 20 20 20 20 20 21 21 21 21 21 21 22 22 22 22 22 22 22 22 22 22 22 22 22 22 22 22 22 22 22 22 23 23 23 23 23 23 23 23 23 23 23 23 23 23 23 23 23 23 23 23 23 24 24 24 24 24 24 24 24 24 24 24 24 24 24 25 25 25 25 25 25 25 25 25 25 25 25 25 25 25 25 25 25 25 25 25 25 25 25 25 25 25 25 25 25 25 25 25 25 25 25 25 25 25 25 25 25 25 25 25 25 25 25 25 25 25 25 25 25 25 26 26 26 26 26 26 26 26 26 26 26 26 26 26 26 26 26 26 26 26 26 26 26 26 26 26 26 26 26 26 26 26 26 26 26 26 26 26 26 26 26 26 26 26 26 26 26 26 26 26 26 27 27 27 27 27 27 27 27 28 28 28 28 28 28 28 28 28 28 28 28 27 27 27 27 27 27 27 27 27 27 27 27 27 27 27 27 27 27 27 27 27 27 27 27 27 27 27 27 28 28 28 29 29 29 29 30 30 30 30 30 30 30 30 30 30 30 30 30 30 30 31 31 31 31 32 32 33 34 35 36 36 37 37 37 37 37 37 37 37 37 37 37 37 36 36 36 36 36 36 36 35 35 35 34 34 33 33 33 32 32 32 32 32 32 32 32 32 32 32 32 32 32 32 32 32 32 33 33 34 34 35 36 36 37 37 37 37 37 38 39 40 42 43 44 45 45 45 45 44 43 43 42 41 40 40 39 38 38 38 38 37 37 37 37 38 38 38 38 38 38 38 39 39 39 40 41 41 42 43 43 44 45 46 46 47 48 48 49 49 49 49 49 49 49 49 48 48 48 47 47 47 47 47 47 47 46 46 46 45 45 44 44 43 43 43 43 43 42 42 42 43 43 43 43 43 43 44 44 44 44 44 45 45 45 45 46 46 46 46 46 46 47 47 47 47 47 47 47 47 47 47 47 48 48 48 49 50 52 52 53 54 54 54 54 55 55 55 54 54 54 54 54 54 54 54 54 54 54 53 53 52 52 50 49 47 44 43 42 41 41 41 41 41 41 40 40 40 39 39 38 38 37 36 36 35 35 35 35 35 35 35 34 34 34 33 33 32 31 31 30 30 30 30 30 30 30 30 30 30 30 30 30 30 30 30 30 30 30 30 30 30 31 31 31 31 31 31 31 32 32 32 31 31 31 31 31 31 32 32 32 32 31 30 29 27 26 25 25 24 23 23 23 22 22 22 23 23 23 23 23 23 23 24 25 26 27 27 27 27 28 28 28 28 28 28 28 29 29 30 30 31 31 31 31 31 31 31 31 31 31 31 31 30 30 30 30 30 30 30 30 29 29 28 28 27 27 26 26 26 26 25 25 25 25 25 24 24 24 24 24 24 25 26 28 30 32 33 34 34 34 34 34 32 29 26 22 19 16 15 14 14 14 14 14 14 14 14 14 14 15 15 15 15 15 15 15 14 14 14 14 14 14 14 14 14 14 15 18 22 30 38 44 49 48 48 47 47 47 47 46 46 46 45 45 45 45 45 45 45 45 45 45 45 45 45 45 45 45 45 45 45 45 45 45 45 45 45 45 44 44 44 44 44 44 44 44 44 44 44 43 43 42 40 37 34 29 25 24 23 23 23 24 24 24 24 25 26 27 28 29 30 31 31 32 32 33 33 33 33 33 33 33 34 34 34 34 34 34 34 34 34 34 34 34 34 33 33 33 33 33 33 33 33 33 33 33 32 32 32 32 32 32 32 31 31 31 31 31 31 31 30 30 30 30 30 30 30 30 29 29 29 29 29 29 29 29 29 28 28 28 28 28 27 27 27 27 27 27 27 26 26 26 26 26 26 26 25 25 25 25 25 25 25 25 24 24 24 24 23 23 22 22 22 22 22 22 22 22 22 21 21 21 21 20 20 20 20 20 20 20 20 20 19 19 19 19 19 19 19 19 19 19 19 19 19 18 18 18 18 18 18 18 18 18 18 18 18 18 18 18 18 18 18 17 17 17 17 17 17 17 17 17 17 17 17 17 17 17 17 17 17 17 17 17 17 17 16 16 16 16 16 16 16 16 16 16 16 16 16 16 16 16 16 15 15 15 15 15 14 14 14 14 14 14 15 15 15 15 16 16 16 16 17 17 17 17 17 17 17 17 17 17 17 17 17 17 17 17 17 17 17 16 16 16 16 16 16 16 16 16 16 16 16 16 15 15 15 15 15 15 15 15 15 14 14 14 13 13 13 13 13 13 13.5868435
13 14 15 15 15 15 15 15 16 16 17 17 17 18 18 18 18 18 19 19 19 19 19 19 20 20 20 20 20 20 21 21 21 21 21 21 22 22 22 22 22 22 22 22 22 22 22 22 22 22 22 22 22 22 22 22 23 23 23 23 23 23 23 23 23 23 23 23 23 23 23 23 23 23 23 23 23 24 24 24 24 24 24 24 24 24 24 24 24 24 25 25 25 25 25 25 25 25 25 25 25 25 25 25 25 25 25 25 25 25 25 25 25 25 25 25 25 25 25 25 25 25 25 25 25 25 25 25 25 25 25 25 25 25 25 25 25 25 25 25 25 25 25 25 26 26 26 26 26 26 26 26 26 26 26 26 26 26 26 26 26 26 26 26 26 26 26 26 26 26 26 26 26 26 26 26 26 26 26 26 26 26 26 26 26 26 26 26 26 26 26 26 26 26 26 27 27 27 27 27 27 27 27 27 27 27 28 28 28 28 28 28 28 28 28 28 28 27 27 27 27 27 27 27 27 27 27 27 27 27 27 27 27 27 27 27 27 27 27 27 27 27 27 27 27 28 28 28 29 29 29 29 30 30 30 30 30 30 30 30 30 30 30 30 30 31 31 31 31 31 32 32 33 33 34 35 36 36 37 37 37 37 37 37 37 37 37 37 37 37 37 37 37 36 36 36 36 36 35 35 34 34 33 33 33 32 32 32 32 32 32 32 32 32 32 32 32 32 32 32 32 32 32 33 33 34 35 35 36 36 37 37 37 38 38 38 39 41 42 44 44 45 45 44 44 44 43 42 41 41 40 39 39 38 38 38 38 37 37 37 37 37 38 38 38 38 38 38 39 39 39 40 41 41 42 43 43 44 45 46 46 47 48 48 49 49 49 49 49 49 49 49 49 48 48 48 47 47 47 47 47 47 47 46 46 45 45 44 44 43 43 43 43 42 42 42 42 42 43 43 43 43 43 44 44 44 44 44 45 45 45 45 46 46 46 46 46 46 47 47 47 47 47 47 47 47 47 47 47 48 48 48 49 50 51 52 53 54 54 54 55 55 55 55 55 55 55 55 55 55 55 55 55 54 54 54 53 53 52 51 49 47 44 43 42 42 42 42 41 41 41 41 40 40 40 39 39 38 37 37 36 36 36 36 36 36 36 35 35 35 34 34 33 33 32 31 31 30 30 30 30 30 30 30 30 30 30 30 30 30 31 31 31 31 31 31 32 32 31 31 31 32 32 32 33 33 33 33 33 33 33 33 33 33 34 34 34 34 33 31 30 28 27 26 25 24 23 23 23 23 23 23 23 23 23 23 23 23 24 25 26 27 27 28 28 28 28 29 29 29 29 29 29 30 30 31 31 31 31 32 32 32 32 32 32 31 31 31 31 31 31 31 30 30 30 30 30 30 29 29 28 28 27 27 27 26 26 26 25 25 25 25 24 24 24 24 24 25 27 28 31 34 36 37 38 38 38 38 38 37 33 29 25 21 18 16 15 14 14 14 14 14 14 14 14 15 15 16 16 16 16 15 15 15 14 14 14 14 14 14 14 14 14 15 18 22 30 37 44 49 48 48 47 47 47 47 47 46 46 46 45 45 45 45 46 46 46 46 45 45 45 45 45 45 45 45 45 45 45 45 45 45 45 45 45 45 44 44 44 44 44 44 44 44 44 44 43 42 42 40 38 34 29 26 24 23 23 23 24 24 24 25 26 27 28 29 30 31 32 33 33 33 33 34 34 34 34 34 34 34 34 34 34 34 34 34 34 34 34 34 34 34 34 34 33 33 33 33 33 33 33 33 33 33 32 32 32 32 32 32 32 31 31 31 31 31 31 31 30 30 30 30 30 30 30 30 30 29 29 29 29 29 29 29 29 28 28 28 28 28 27 27 27 27 27 27 27 26 26 26 26 26 26 25 25 25 25 25 25 25 25 24 24 24 24 23 23 22 22 22 22 22 22 22 22 22 21 21 21 21 20 20 20 20 20 20 20 20 20 19 19 19 19 19 19 19 19 19 19 19 19 18 18 18 18 18 18 18 18 18 18 18 18 18 18 18 18 18 18 18 17 17 17 17 17 17 17 17 17 17 17 17 17 17 17 17 16 16 16 15 15 15 15 15 15 14 14 14 14 14 14 14 14 14 14 14 14 14 14 14 14 13 13 13 13 13 13 13 13 13 13 13 13 13 13 13 14 14 14 14 15 15 16 16 16 17 17 17 17 17 17 17 16 16 16 16 16 17 16 16 16 16 16 16 16 16 16 16 16 16 16 15 15 15 15 15 15 15 15 15 14 14 14 13 13 13 13 13 13 13.603846
12 13 15 15 15 15 15 16 16 17 17 18 18 18 18 18 18 18 18 19 19 19 19 19 20 20 20 20 20 20 20 21 21 21 21 21 21 22 22 22 22 22 22 22 22 22 22 22 22 22 22 22 22 22 22 22 23 23 23 23 23 23 23 23 23 23 23 23 23 23 23 23 23 23 23 23 23 24 24 24 24 24 24 24 24 24 24 24 24 25 25 25 25 25 25 25 25 25 25 25 25 25 25 25 25 25 25 25 25 25 25 25 25 25 25 25 25 25 25 25 25 25 25 25 25 25 25 25 25 25 25 25 25 25 25 25 25 25 25 25 25 26 26 26 26 26 26 26 26 26 26 26 26 26 26 26 26 26 26 26 26 26 26 26 26 26 26 26 26 26 26 26 26 26 26 26 26 26 26 26 26 26 26 26 26 26 26 26 26 26 26 26 27 27 27 27 27 27 27 27 27 27 27 27 27 27 27 28 28 28 28 28 28 28 28 28 28 28 27 27 27 27 27 27 27 27 27 27 27 27 27 27 27 27 26 26 26 27 27 27 27 27 27 27 27 28 28 28 29 29 29 30 30 30 30 30 30 30 30 30 30 30 30 31 31 31 31 31 31 32 32 33 33 34 35 36 36 37 37 37 37 37 37 37 37 37 37 37 37 37 37 37 37 37 37 36 36 36 35 35 35 34 34 33 33 32 32 32 32 32 32 32 32 32 32 32 32 32 32 32 32 32 33 33 34 34 35 35 36 36 37 37 38 38 38 38 39 41 43 44 45 45 45 44 44 43 43 42 41 40 40 39 38 38 38 38 37 37 37 37 37 37 37 38 38 38 38 38 39 39 39 40 40 41 42 43 43 44 45 46 46 47 48 48 49 49 49 49 49 49 49 49 49 49 48 48 48 47 48 47 47 47 47 46 46 45 45 44 44 43 43 43 43 42 42 42 42 42 42 43 43 43 43 44 44 44 44 44 45 45 45 45 46 46 46 46 46 46 47 47 47 47 47 47 47 47 47 47 47 48 48 48 49 50 51 52 53 54 54 55 55 55 56 56 55 55 55 55 55 55 55 55 55 55 54 54 53 53 52 51 49 47 45 43 42 42 42 42 42 42 41 41 41 40 40 40 39 39 38 37 37 36 36 36 36 36 36 36 36 36 35 34 34 33 32 32 31 31 31 30 31 31 31 31 31 31 31 31 31 31 32 32 32 32 33 33 33 33 32 32 32 33 33 34 34 35 35 35 35 35 34 35 35 35 35 35 35 35 34 33 31 29 28 27 26 25 24 23 23 23 23 23 23 23 23 23 23 23 24 25 26 27 28 28 29 29 29 30 30 30 30 30 30 31 31 31 32 32 32 32 32 32 32 32 32 32 32 31 31 31 31 31 31 31 30 30 30 30 30 29 29 28 28 27 27 27 26 26 26 26 25 25 25 24 24 25 25 26 28 31 34 37 40 41 42 42 43 43 42 41 37 32 27 23 19 17 15 14 14 14 14 14 14 14 14 15 15 16 16 16 16 16 15 15 14 14 14 14 14 14 14 14 14 15 18 22 30 37 44 49 49 48 48 47 47 47 47 46 46 46 46 46 46 46 46 46 46 46 46 46 46 46 46 46 46 46 46 46 46 46 46 45 45 45 45 45 44 44 44 44 44 44 44 44 44 44 43 42 41 40 38 35 30 26 24 23 24 24 24 24 25 26 27 29 30 31 32 33 33 34 34 34 34 34 34 34 34 34 34 34 34 34 34 34 34 34 34 34 34 34 34 34 34 34 34 33 33 33 33 33 33 33 33 33 32 32 32 32 32 32 32 31 31 31 31 31 31 31 31 30 30 30 30 30 30 30 30 30 29 29 29 29 29 29 29 28 28 28 28 28 27 27 27 27 27 27 27 26 26 26 26 26 26 26 25 25 25 25 25 25 25 24 24 24 24 23 23 22 22 22 22 22 22 22 22 22 21 21 21 21 20 20 20 20 20 20 20 20 20 19 19 19 19 19 19 19 19 19 19 19 18 18 18 18 18 18 18 18 18 18 18 18 18 18 18 18 18 18 18 18 18 18 17 17 17 17 17 17 17 17 17 17 17 17 16 16 15 15 14 14 13 13 13 13 13 13 13 12 12 12 12 12 12 12 12 12 12 12 12 12 12 12 11 11 11 11 11 11 11 11 11 11 11 11 11 11 11 11 12 12 13 13 14 15 16 17 17 17 17 17 17 16 16 16 16 16 16 16 16 16 16 16 16 16 16 16 16 16 16 16 16 15 15 15 15 15 15 15 15 15 14 14 14 14 13 13 13 13 13 13.620848
9 10 10 10 10 11 11 12 12 14 15 16 17 18 18 18 18 19 19 19 19 19 19 19 19 20 20 20 20 20 20 21 21 21 21 21 21 22 22 22 22 22 22 22 22 22 22 22 22 22 22 22 22 22 22 22 23 23 23 23 23 23 23 23 23 23 23 23 23 23 23 23 23 23 23 23 23 24 24 24 24 24 24 24 24 24 24 24 24 24 25 25 25 25 25 25 25 25 25 25 25 25 25 25 25 25 25 25 25 25 25 25 25 25 25 25 25 25 25 25 25 25 25 25 25 25 25 25 25 25 25 25 26 26 26 26 26 26 26 26 26 26 26 26 26 26 26 26 26 26 26 26 26 26 26 26 26 26 26 26 26 26 26 26 26 26 26 26 26 26 26 26 26 26 26 26 26 26 26 26 26 26 26 26 26 26 26 26 26 27 27 27 27 27 27 27 27 27 27 27 27 27 27 27 27 27 27 27 28 28 28 28 28 28 28 28 28 27 27 27 27 27 27 27 27 27 27 27 27 27 27 27 27 26 26 26 26 26 26 26 26 27 27 27 27 27 28 28 29 29 29 30 30 30 30 30 30 30 30 31 31 31 31 31 31 31 31 31 32 32 32 33 34 34 35 36 37 37 37 37 37 37 37 37 37 37 37 37 37 37 37 37 37 37 37 37 36 36 36 35 35 34 34 33 33 32 32 32 32 32 32 32 32 32 32 32 32 32 32 32 32 32 33 33 34 34 35 35 36 36 37 37 38 38 38 39 40 41 43 44 44 44 44 44 44 43 42 41 41 40 39 39 38 38 38 37 37 37 37 37 37 37 37 37 38 38 38 38 38 39 39 40 40 41 42 42 43 44 45 45 46 47 48 48 48 49 49 49 49 49 50 49 49 49 48 48 48 48 48 47 47 47 47 46 46 45 45 44 44 43 43 43 43 42 42 42 42 42 42 43 43 43 43 44 44 44 44 44 45 45 45 45 46 46 46 46 46 46 46 47 47 47 47 47 47 47 47 47 47 48 48 48 49 50 51 52 53 53 54 55 55 56 56 56 56 56 56 56 56 56 56 55 55 55 54 54 53 53 52 51 49 47 45 43 43 42 42 42 42 42 42 41 41 41 40 40 39 39 38 37 37 37 36 36 37 37 37 37 37 36 36 35 35 34 33 33 32 32 32 32 32 32 32 32 32 32 32 32 33 33 33 33 34 34 34 34 34 34 33 33 33 34 34 35 36 36 36 36 36 36 36 36 36 36 37 37 37 36 35 34 32 30 29 28 26 25 25 24 23 23 23 23 23 23 23 23 23 24 24 25 27 28 29 29 30 30 30 30 31 31 31 31 31 31 32 32 32 32 32 32 32 32 32 32 32 32 32 32 31 31 31 31 31 31 31 31 31 31 30 30 29 29 28 28 28 27 27 27 26 26 26 25 25 25 25 25 26 28 30 33 37 40 42 44 44 44 45 45 45 43 39 35 29 24 21 18 16 14 14 14 14 14 14 14 14 15 16 16 17 17 17 16 16 15 14 14 14 14 14 14 14 14 14 15 18 22 29 36 44 49 49 49 48 48 48 47 47 47 47 46 46 46 46 46 46 46 46 46 46 46 46 46 46 46 46 46 46 46 46 46 46 46 45 45 45 44 44 44 44 44 44 44 44 44 44 43 43 42 42 40 38 35 31 27 25 24 24 24 24 25 25 26 28 30 31 33 33 34 34 35 35 35 35 35 35 35 35 35 35 35 34 34 34 34 34 34 34 34 34 34 34 34 34 34 34 34 33 33 33 33 33 33 33 33 33 32 32 32 32 32 32 31 31 31 31 31 31 31 31 30 30 30 30 30 30 30 30 30 29 29 29 29 29 29 29 29 28 28 28 28 27 27 27 27 27 27 27 27 26 26 26 26 26 26 26 25 25 25 25 25 25 24 24 24 24 23 23 22 22 22 22 22 22 22 22 22 21 21 21 21 21 20 20 20 20 20 20 20 20 20 19 19 19 19 19 19 19 19 19 18 18 18 18 18 18 18 18 18 18 18 18 18 18 18 18 17 18 18 18 18 18 18 17 17 17 17 17 17 16 16 16 16 15 15 15 14 14 13 13 13 12 12 12 12 12 12 12 12 12 12 12 12 12 12 12 12 12 12 12 11 11 11 11 11 11 11 11 11 11 11 11 11 11 11 11 11 11 11 11 11 12 12 13 13 14 15 15 16 16 17 17 17 17 16 16 16 16 16 16 16 16 16 16 16 16 16 16 16 16 16 16 15 15 15 15 15 15 15 15 15 14 14 14 14 13 13 13 13 13 13.625252
7 7 6 6 6 6 6 7 8 10 12 14 16 18 19 19 19 19 19 19 19 19 19 19 19 19 20 20 20 20 20 20 21 21 21 21 21 21 22 22 22 22 22 22 22 22 22 22 22 22 22 22 22 22 22 22 22 23 23 23 23 23 23 23 23 23 23 23 23 23 23 23 23 23 23 23 23 24 24 24 24 24 24 24 24 24 24 24 24 24 25 25 25 25 25 25 25 25 25 25 25 25 25 25 25 25 25 25 26 26 26 26 25 25 25 25 25 25 25 25 25 25 25 25 25 25 25 25 25 25 26 26 26 26 26 26 26 26 26 26 26 26 26 26 26 26 26 26 26 26 26 26 26 26 26 26 26 26 26 26 26 26 26 26 26 26 26 26 26 26 26 26 26 26 26 26 26 26 26 26 26 26 26 26 26 26 26 26 27 27 27 27 27 27 27 27 27 27 27 27 27 27 27 27 27 27 27 27 27 27 27 27 28 28 28 28 28 27 27 27 27 27 27 27 27 27 27 27 27 27 27 26 26 26 26 26 26 26 26 26 26 26 26 27 27 27 28 28 29 29 30 30 30 30 30 31 31 31 31 31 31 31 31 31 31 31 31 32 32 32 33 33 34 35 36 36 37 37 37 37 37 37 37 37 37 37 37 37 37 37 37 37 37 37 37 37 37 36 36 35 35 34 34 33 33 33 32 32 32 32 32 32 32 32 32 32 32 32 32 32 32 33 33 33 34 35 35 36 36 37 37 37 38 38 38 39 40 42 43 44 44 44 44 44 43 42 42 41 40 40 39 38 38 38 38 37 37 37 37 37 37 37 37 37 38 38 38 38 38 39 39 39 40 41 41 42 43 44 44 45 46 47 47 48 48 49 49 49 49 50 50 50 49 49 49 48 48 48 48 48 47 47 47 46 46 45 45 44 44 43 43 43 43 42 42 42 42 42 42 43 43 43 43 44 44 44 44 45 45 45 45 45 46 46 46 46 46 46 46 47 47 47 47 47 47 47 47 47 48 48 48 49 49 50 51 52 53 53 54 55 55 56 56 56 56 56 56 56 56 56 56 56 55 55 54 54 53 53 52 51 49 47 45 44 43 42 42 42 42 42 42 41 41 41 40 40 40 39 38 38 37 37 37 37 37 37 38 38 38 37 37 36 36 35 34 34 33 33 33 33 33 33 33 33 33 33 33 34 34 34 35 35 35 36 36 35 35 35 34 34 34 35 36 36 37 37 38 38 37 37 37 37 38 38 38 38 38 38 36 35 33 31 30 28 27 26 25 24 24 24 24 24 24 24 24 24 24 24 25 26 28 29 30 30 31 31 31 31 32 32 32 32 32 32 32 32 33 32 32 32 33 33 33 32 32 32 32 32 32 32 32 32 31 31 31 31 31 31 31 30 30 29 29 28 28 28 27 27 27 26 26 25 25 25 26 26 27 29 32 35 40 43 45 46 46 47 47 47 47 45 41 37 31 26 23 20 17 15 14 14 14 14 14 14 15 15 16 16 17 17 17 17 16 16 15 14 14 14 14 14 14 14 14 15 18 22 29 36 44 49 50 50 49 48 48 48 48 47 47 47 46 46 46 46 46 46 46 46 46 46 46 46 46 46 46 46 46 46 46 46 46 46 45 45 44 44 44 44 44 44 44 43 43 43 43 43 43 42 42 41 39 36 32 28 26 24 24 24 25 25 26 27 29 32 33 34 35 36 36 36 36 36 36 36 36 36 35 35 35 35 35 35 35 35 35 35 35 35 35 35 34 34 34 34 34 34 34 33 33 33 33 33 33 33 33 33 32 32 32 32 32 31 31 31 31 31 31 31 31 30 30 30 30 30 30 30 30 30 30 29 29 29 29 29 29 29 28 28 28 28 28 27 27 27 27 27 27 27 27 26 26 26 26 26 26 25 25 25 25 25 25 24 24 24 24 23 23 23 22 22 22 22 22 22 22 21 21 21 21 21 21 20 20 20 20 20 20 20 20 20 19 19 19 19 19 19 19 19 18 18 18 18 18 18 18 18 18 18 18 18 18 18 18 17 17 17 18 18 18 18 18 18 17 17 17 17 16 16 16 15 15 14 14 13 13 12 12 12 11 11 11 11 11 11 11 11 11 11 11 11 11 11 11 11 11 11 11 11 11 11 11 11 11 11 11 11 11 11 11 11 11 11 11 11 11 11 11 11 11 11 11 11 11 11 12 13 14 15 16 16 17 17 17 17 16 16 16 16 16 16 16 16 16 16 16 16 16 16 16 16 16 15 15 15 15 15 15 15 15 15 14 14 14 14 13 13 13 13 13 13.629656
5 5 5 5 4 4 5 5 5 6 7 9 10 12 13 14 16 17 17 18 18 19 19 19 19 19 19 20 20 20 20 20 21 21 21 21 21 21 21 22 22 22 22 22 22 22 22 22 22 22 22 22 22 22 22 22 22 23 23 23 23 23 23 23 23 23 23 23 23 23 23 23 23 23 23 23 24 24 24 24 24 24 24 24 24 24 24 24 24 24 25 25 25 25 25 25 25 25 25 25 25 25 25 25 25 26 26 26 26 26 26 26 26 26 25 25 25 25 25 25 25 25 25 25 25 25 25 25 25 26 26 26 26 26 26 26 26 26 26 26 26 26 26 26 26 26 26 26 26 26 26 26 26 26 26 26 26 26 26 26 26 26 26 26 26 26 26 26 26 26 26 26 26 26 26 26 26 26 26 26 26 26 26 26 26 26 26 27 27 27 27 27 27 27 27 27 27 27 27 27 27 27 27 27 27 27 27 27 27 27 27 27 27 27 27 27 27 27 27 27 27 27 27 27 27 27 27 27 27 27 27 26 26 26 26 26 26 26 26 26 26 26 26 26 27 27 28 29 29 30 30 30 30 31 31 31 31 31 31 31 31 31 31 31 31 31 32 32 32 33 33 34 34 35 36 37 37 37 37 37 37 37 37 37 37 37 37 37 37 37 37 37 37 37 37 37 37 36 36 36 35 34 34 33 33 33 32 32 32 32 32 32 32 32 32 32 32 32 32 32 32 33 33 34 34 35 35 36 36 37 37 37 38 38 38 39 41 42 43 44 44 44 44 43 43 42 41 40 40 39 39 38 38 38 38 37 37 37 37 37 37 37 37 37 37 38 38 38 38 38 39 39 40 40 41 42 42 43 44 45 46 46 47 48 48 49 49 49 49 50 50 50 50 49 49 48 48 48 48 48 47 47 47 46 46 45 44 44 44 43 43 43 42 42 42 42 42 42 42 43 43 43 43 44 44 44 44 45 45 45 45 46 46 46 46 46 46 46 46 47 47 47 47 47 47 47 47 47 48 48 48 49 49 50 51 52 52 53 54 55 56 56 56 57 57 56 56 56 56 56 56 56 55 55 54 54 53 53 52 51 49 47 45 44 43 43 43 43 42 42 42 42 41 41 41 40 40 39 38 38 37 37 37 37 38 38 38 39 39 38 38 38 37 36 36 35 35 34 34 34 34 34 34 35 35 35 35 35 36 36 36 37 37 37 37 37 36 36 35 35 36 36 37 38 38 39 39 39 39 38 38 38 39 39 39 39 39 38 37 36 34 32 31 29 28 27 26 25 25 24 24 24 25 25 25 24 24 25 25 27 28 30 31 31 32 32 32 32 32 33 33 33 33 33 33 33 33 33 32 32 33 33 33 33 32 32 32 32 32 32 32 32 32 32 32 32 32 32 31 31 30 30 29 29 29 28 28 27 27 26 26 26 26 26 27 28 29 31 34 37 41 44 46 47 47 47 47 47 47 46 42 38 32 27 24 21 18 15 15 14 14 14 14 14 15 15 16 17 17 18 18 17 17 16 15 14 14 14 14 14 14 14 14 15 18 21 28 35 43 49 50 50 49 48 48 48 48 48 47 47 47 47 47 47 47 47 47 47 47 46 46 46 46 46 46 46 46 46 46 46 46 45 45 44 44 44 43 43 43 43 43 43 43 43 43 43 43 42 42 41 39 37 33 29 27 25 25 25 25 25 26 28 30 33 35 36 36 37 37 37 37 37 36 36 36 36 36 36 36 35 35 35 35 35 35 35 35 35 35 35 35 35 34 34 34 34 34 34 33 33 33 33 33 33 33 33 33 32 32 32 32 32 31 31 31 31 31 31 31 30 30 30 30 30 30 30 30 30 29 29 29 29 29 29 29 28 28 28 28 28 27 27 27 27 27 27 27 27 26 26 26 26 26 26 26 25 25 25 25 25 24 24 24 24 24 23 23 23 22 22 22 22 22 22 21 21 21 21 21 21 20 20 20 20 20 20 20 20 20 20 19 19 19 18 18 18 18 18 18 18 18 19 19 19 19 18 18 18 18 18 18 17 17 17 17 17 17 17 16 16 16 16 16 16 15 15 15 14 14 14 13 13 13 12 12 12 12 12 11 11 11 11 11 11 11 11 11 11 11 11 11 11 11 11 11 11 11 11 11 11 11 11 11 11 11 11 11 11 11 11 11 11 11 11 11 11 11 11 11 11 11 11 11 11 11 12 12 13 14 15 15 16 16 16 16 17 16 16 16 16 16 16 16 16 16 16 16 16 16 16 16 15 15 15 15 15 15 15 15 15 14 14 14 14 13 13 13 13 13 13.6319065
4 4 3 3 3 3 3 3 2 2 2 3 4 6 8 10 12 14 16 17 18 19 19 19 19 19 19 19 20 20 20 20 21 21 21 21 21 21 21 22 22 22 22 22 22 22 22 22 22 22 22 22 22 22 22 22 22 23 23 23 23 23 23 23 23 23 23 23 23 23 23 23 23 23 23 24 24 24 24 24 24 24 24 24 24 24 24 24 24 24 25 25 25 25 25 25 25 25 25 25 25 25 25 26 26 26 26 26 26 26 26 26 26 26 26 26 25 25 25 25 25 25 25 25 25 25 25 26 26 26 26 26 26 26 26 26 26 26 26 26 26 26 26 26 26 26 26 26 26 26 26 26 26 26 26 26 26 26 26 26 26 26 26 26 26 26 26 26 26 26 26 26 26 26 26 26 26 26 26 26 26 26 26 26 26 26 26 27 27 27 27 27 27 27 27 27 27 27 27 27 27 27 27 27 27 27 27 27 27 27 27 27 27 27 27 27 27 27 27 27 27 27 27 27 27 27 27 27 27 27 27 26 26 26 26 26 26 26 26 26 26 26 26 26 27 27 28 29 29 30 30 30 31 31 31 31 31 31 31 31 31 31 31 31 32 32 32 32 32 33 33 34 35 36 36 37 37 37 37 37 37 37 37 37 37 37 37 37 37 37 37 37 37 37 37 37 37 37 36 36 35 35 34 34 33 33 32 32 32 32 32 32 32 32 32 32 32 32 32 32 33 33 33 34 34 35 35 36 36 37 37 37 38 38 39 40 41 42 43 44 44 44 43 43 42 41 41 40 39 39 39 38 38 38 38 37 37 37 37 37 37 37 37 37 37 38 38 38 38 38 38 39 39 40 40 41 42 43 44 45 45 46 47 47 48 48 49 49 50 50 50 50 50 50 49 49 48 48 48 48 48 47 47 46 46 45 44 44 43 43 43 43 42 42 42 42 42 42 42 43 43 43 43 44 44 44 45 45 45 45 45 46 46 46 46 46 46 46 46 47 47 47 47 47 47 47 47 47 48 48 48 49 49 50 51 52 52 53 54 55 56 56 57 57 57 57 57 57 57 57 56 56 56 55 54 54 53 53 52 50 49 47 46 45 44 43 43 43 43 42 42 42 41 41 41 40 40 39 39 38 38 37 37 38 38 39 39 39 40 39 39 39 38 38 37 37 36 36 36 36 36 36 36 36 36 37 37 37 37 38 38 38 39 38 38 38 37 37 36 36 37 37 38 39 40 40 40 40 40 39 39 39 40 40 40 40 40 39 38 36 34 33 31 30 29 28 27 26 25 25 25 25 25 26 25 25 25 25 26 27 29 31 32 32 33 33 33 33 33 33 33 33 33 33 33 33 33 33 32 32 33 33 33 33 33 32 32 32 32 32 32 32 32 32 32 32 32 32 32 32 31 30 30 30 29 29 28 28 27 27 27 27 27 27 28 29 30 32 35 38 42 45 47 48 47 47 48 48 48 47 43 39 33 29 26 22 18 16 15 14 14 15 14 15 15 15 16 17 18 18 18 18 17 16 15 14 14 14 14 14 14 14 14 15 17 21 27 35 42 48 50 51 49 49 49 49 48 48 48 47 47 47 47 47 47 47 47 47 47 47 47 47 47 47 47 47 47 46 46 46 45 45 44 44 43 43 43 43 43 43 43 43 43 43 43 43 42 42 42 41 40 38 34 31 28 25 25 25 25 26 27 28 32 34 36 38 38 38 38 38 37 37 37 37 37 37 36 36 36 36 36 35 35 35 35 35 35 35 35 35 35 35 35 34 34 34 34 34 34 34 33 33 33 33 33 33 33 33 32 32 32 32 32 31 31 31 31 31 31 30 30 30 30 30 30 30 30 29 29 29 29 29 29 29 29 28 28 28 28 28 27 27 27 27 27 27 27 27 26 26 26 26 26 26 25 25 25 25 25 25 24 24 24 24 24 23 23 23 22 22 22 22 22 21 21 21 21 21 21 21 20 20 20 20 20 20 20 20 20 19 19 19 18 18 18 18 18 18 18 18 19 19 19 19 19 19 18 18 18 18 17 17 17 17 16 16 16 15 15 15 15 14 14 14 13 13 13 13 12 12 12 12 12 12 12 12 12 12 12 12 11 11 11 11 11 11 11 11 11 11 11 11 11 11 11 11 11 11 11 11 11 11 11 11 11 11 11 11 11 11 11 11 11 11 11 11 11 11 11 11 11 11 11 11 11 11 11 11 12 13 14 15 16 16 16 17 16 16 16 16 16 16 16 16 16 16 16 16 16 16 16 15 15 15 15 15 15 15 15 15 14 14 14 14 14 13 13 13 13 13.634157
4 3 3 3 3 3 3 3 3 3 3 3 3 4 5 6 8 9 11 13 14 16 17 18 18 19 19 19 20 20 20 20 20 21 21 21 21 21 21 21 22 22 22 22 22 22 22 22 22 22 22 22 22 22 22 22 23 23 23 23 23 23 23 23 23 23 23 23 23 23 23 23 23 23 24 24 24 24 24 24 24 24 24 24 24 24 24 24 24 25 25 25 25 25 25 25 25 25 25 25 26 26 26 26 26 26 26 26 26 26 26 26 26 26 26 26 26 26 26 26 26 26 26 26 26 26 26 26 26 26 26 26 26 26 26 26 26 26 26 26 26 26 26 26 26 26 26 26 26 26 26 26 26 26 26 26 26 26 26 26 26 26 26 26 26 26 26 26 26 26 26 26 26 26 26 26 26 26 26 26 26 26 26 26 26 26 26 27 27 27 27 27 27 27 27 28 28 28 28 28 28 28 28 28 28 28 28 28 28 28 28 27 27 27 27 27 27 27 27 28 28 27 27 27 27 27 27 27 27 27 26 26 26 26 26 26 26 26 26 26 26 26 26 26 27 27 28 29 29 30 30 31 31 31 31 31 31 31 31 32 32 32 32 32 32 32 32 32 33 33 34 34 35 36 36 37 37 37 38 38 38 37 37 37 37 37 37 37 37 37 37 37 37 37 37 37 37 37 37 36 35 35 34 34 33 33 33 33 32 32 32 32 32 32 32 32 32 32 32 33 33 33 33 34 35 35 35 36 36 37 37 38 38 39 39 40 42 43 43 44 44 43 43 42 42 41 40 40 39 39 38 38 38 38 38 37 37 37 37 37 37 37 37 37 37 38 38 38 38 38 38 39 39 39 40 41 41 42 43 44 45 46 46 47 48 48 49 49 49 50 50 50 50 50 49 49 48 48 48 48 48 47 47 46 45 45 44 44 43 43 43 43 42 42 42 42 42 42 42 43 43 43 43 44 44 44 45 45 45 45 46 46 46 46 46 46 46 46 47 47 47 47 47 47 47 47 47 48 48 48 49 49 50 50 51 52 53 53 54 55 56 56 57 57 57 57 57 57 57 57 57 56 55 55 54 54 53 52 51 50 49 48 46 45 44 44 43 43 43 43 42 42 42 41 41 41 40 40 39 38 38 38 38 38 39 39 40 40 41 41 40 40 40 39 39 38 38 37 37 37 37 37 37 38 38 38 38 38 39 39 39 39 39 39 39 38 38 37 37 37 38 38 39 40 41 41 41 41 40 40 40 40 40 41 41 41 41 40 38 37 35 33 32 31 30 29 27 27 26 26 26 26 27 27 27 26 26 26 27 28 30 31 33 33 33 33 33 33 34 34 34 34 34 34 33 33 33 32 32 32 33 33 33 33 33 32 32 32 32 32 33 33 33 33 32 32 33 33 33 32 32 31 31 30 30 29 29 28 28 27 27 27 28 28 29 30 31 33 36 39 43 46 47 47 47 47 47 48 48 47 43 39 34 29 27 23 19 16 15 14 14 15 15 15 15 15 16 17 18 19 18 18 18 17 15 14 14 14 14 14 14 14 14 15 17 20 27 34 41 47 50 51 49 49 49 48 48 48 47 47 47 47 47 47 47 47 47 47 47 47 47 47 47 47 47 47 47 46 46 46 45 44 43 43 42 42 42 42 42 42 42 42 42 42 42 42 42 42 42 41 40 39 35 32 29 26 26 26 26 26 27 29 32 35 37 39 39 39 38 38 38 38 37 37 37 37 37 37 36 36 36 36 36 36 35 35 35 35 35 35 35 35 35 35 34 34 34 34 34 34 34 33 33 33 33 33 33 33 33 32 32 32 32 31 31 31 31 31 31 30 30 30 30 30 30 30 30 29 29 29 29 29 29 29 29 28 28 28 28 28 27 27 27 27 27 27 26 26 26 26 26 26 26 26 25 25 25 25 25 25 24 24 24 24 24 24 23 23 23 22 22 22 22 22 21 21 21 21 21 21 21 20 20 20 20 20 20 20 19 19 18 18 18 17 17 17 18 18 18 18 18 18 18 18 18 18 17 17 17 16 16 15 15 15 14 14 14 14 14 13 13 13 13 13 13 12 12 12 12 12 12 12 12 11 11 11 11 11 11 11 11 11 11 11 11 11 11 11 11 11 11 11 11 11 11 11 11 11 11 11 11 11 11 11 11 11 11 11 11 11 11 11 11 11 11 11 11 11 11 11 11 11 11 11 11 11 11 11 12 12 13 14 15 15 16 16 16 16 16 16 16 16 16 16 16 16 16 16 16 16 15 15 15 15 15 15 15 15 15 15 14 14 14 14 14 13 13 13 13 13.6463585
3 3 3 3 3 3 3 3 3 3 3 3 3 3 2 3 3 4 6 8 10 13 15 17 18 18 19 19 19 20 20 20 20 21 21 21 21 21 21 21 22 22 22 22 22 22 22 22 22 22 22 22 22 22 22 23 23 23 23 23 23 23 23 23 23 23 23 23 23 23 23 23 23 23 24 24 24 24 24 24 24 24 24 24 24 24 24 24 24 25 25 25 25 25 25 25 25 25 25 26 26 26 26 26 26 26 26 26 26 26 26 26 26 26 26 26 26 26 26 26 26 26 26 26 26 26 26 26 26 26 26 26 26 26 26 26 26 26 26 26 26 26 26 26 26 26 26 26 26 26 26 26 26 26 26 26 26 26 26 26 26 26 26 26 26 26 26 26 26 26 26 26 26 26 26 26 26 26 26 26 26 26 26 26 26 26 27 27 27 27 27 27 27 28 28 28 28 28 28 28 28 28 28 28 28 28 28 28 28 28 28 28 28 28 28 28 28 28 28 28 28 28 28 27 27 27 27 27 27 27 26 26 26 26 26 26 26 26 26 26 26 26 26 26 26 27 28 29 30 30 31 31 31 31 31 32 32 32 32 32 32 32 32 32 32 32 32 32 33 33 34 34 35 36 37 37 37 38 38 38 38 38 37 37 37 37 37 37 37 37 37 37 37 38 38 37 37 37 37 36 36 35 35 34 34 33 33 33 33 33 32 32 32 32 32 32 32 32 33 33 33 33 34 34 35 35 36 36 36 37 37 38 38 39 40 41 42 43 43 43 43 43 42 42 41 40 40 39 39 39 38 38 38 38 38 38 37 37 37 37 37 37 37 37 38 38 38 38 38 38 38 39 39 39 40 40 41 42 43 44 45 45 46 47 47 48 48 49 49 50 50 50 50 50 49 49 49 48 48 48 48 47 47 46 45 45 44 43 43 43 43 42 42 42 42 42 42 42 43 43 43 43 43 44 44 44 45 45 45 45 46 46 46 46 46 46 46 47 47 47 47 47 47 47 47 47 48 48 48 48 49 49 50 50 51 52 53 53 54 55 56 57 57 57 57 57 57 57 57 57 57 56 55 55 54 53 53 52 51 50 49 48 47 46 45 44 44 43 43 43 42 42 42 41 41 41 40 40 39 39 38 38 38 39 39 40 41 41 42 42 42 41 41 40 40 40 39 39 39 39 39 39 39 39 39 39 39 40 40 40 40 40 40 40 39 39 38 38 38 38 39 39 40 41 42 42 42 42 41 41 41 41 41 41 41 41 41 40 39 37 35 33 32 31 30 29 28 27 27 27 27 28 28 28 28 27 27 27 27 28 30 32 33 34 34 34 34 34 34 34 34 34 34 34 34 33 33 32 32 32 32 33 33 33 33 32 32 32 33 33 33 33 33 33 33 33 33 33 33 33 33 32 31 31 30 30 29 29 28 28 28 28 29 29 30 31 33 34 37 40 43 46 47 47 47 47 47 48 48 47 44 40 34 30 28 25 20 17 15 14 15 15 15 15 15 15 16 17 19 19 19 19 18 17 16 14 14 14 14 14 14 14 14 15 16 19 26 33 40 46 49 51 49 49 49 48 48 48 47 47 47 47 47 47 47 47 47 47 47 47 47 47 47 47 47 47 47 46 46 45 44 43 43 42 42 41 41 41 42 42 42 42 42 42 42 42 42 42 42 41 41 39 36 33 30 27 27 26 26 27 28 30 33 36 38 40 40 39 39 38 38 38 38 38 37 37 37 37 37 36 36 36 36 36 36 36 36 36 36 36 35 35 35 35 35 34 34 34 34 34 34 33 33 33 33 33 33 33 33 32 32 32 32 31 31 31 31 31 31 30 30 30 30 30 30 30 29 29 29 29 29 29 29 29 29 28 28 28 28 28 27 27 27 27 27 26 26 26 26 26 26 26 26 26 26 25 25 25 25 24 24 24 24 24 24 24 23 23 23 23 22 22 22 22 21 21 21 21 21 21 21 21 21 20 20 20 20 19 19 18 18 17 17 17 17 17 17 17 18 18 18 18 18 18 18 17 16 16 15 15 14 13 13 13 12 12 12 12 12 12 12 12 12 12 12 12 12 12 12 12 12 12 11 11 11 11 11 11 11 11 11 11 11 11 11 11 11 11 11 11 11 11 11 11 11 11 11 11 11 11 11 11 11 11 11 11 11 11 11 11 11 11 11 11 11 11 11 11 11 11 11 11 11 11 11 11 11 11 11 11 12 12 13 14 15 16 16 16 16 16 16 16 16 16 16 16 16 16 16 15 15 15 15 15 15 15 15 15 15 15 14 14 14 14 14 13 13 13 13 13.658562
3 3 3 3 3 3 3 3 3 3 3 3 3 3 3 3 3 4 4 5 7 9 11 13 15 16 17 18 19 19 20 20 20 20 21 21 21 21 21 21 22 22 22 22 22 22 22 22 22 22 22 22 22 22 22 23 23 23 23 23 23 23 23 23 23 23 23 23 23 23 23 23 23 24 24 24 24 24 24 24 24 24 24 24 24 24 24 25 25 25 25 25 25 25 25 25 25 25 26 26 26 26 26 26 26 26 26 26 26 26 26 26 26 26 26 26 26 26 26 26 26 26 26 26 26 26 26 26 26 26 26 26 26 26 26 26 26 26 26 27 27 27 27 27 27 27 27 27 27 26 26 26 26 26 26 26 26 26 26 26 26 26 26 26 26 26 26 26 26 26 26 26 26 26 26 26 26 26 26 26 26 26 26 26 26 26 27 27 27 27 27 28 28 28 28 28 28 28 28 28 28 28 28 28 28 28 28 28 28 28 28 28 28 28 28 28 28 28 28 28 28 28 28 27 27 27 27 27 27 27 26 26 26 26 26 26 26 26 26 26 26 26 26 26 27 27 28 29 30 31 31 31 32 32 32 32 32 32 32 32 32 32 32 32 32 32 32 33 33 33 34 35 35 36 37 37 37 38 38 38 38 38 37 37 37 37 38 38 38 38 38 38 38 38 38 38 37 37 37 37 36 36 35 35 34 34 33 33 33 33 33 33 33 32 32 32 33 33 33 33 33 33 34 34 35 36 36 36 37 37 38 38 39 39 40 41 42 43 43 43 43 43 42 41 41 40 40 39 39 38 38 38 38 38 38 38 38 37 37 37 37 37 37 37 38 38 38 38 38 38 38 38 39 39 39 40 41 41 42 43 44 45 46 46 47 48 48 49 49 49 50 50 50 50 49 49 49 48 48 48 48 47 47 46 45 44 44 43 43 43 42 42 42 42 42 42 42 42 42 43 43 43 43 44 44 44 45 45 45 45 46 46 46 46 46 46 46 47 47 47 47 47 47 47 47 47 48 48 48 49 49 50 50 51 51 52 53 54 54 55 56 57 57 57 58 58 58 58 58 57 57 56 55 55 54 53 53 52 51 50 49 48 47 46 45 45 44 44 44 43 43 42 42 42 41 41 41 40 40 39 39 39 39 40 40 41 42 42 43 43 43 42 42 42 41 41 41 40 40 40 40 40 40 40 40 40 40 40 41 41 41 41 41 40 40 39 39 38 38 39 39 40 41 42 43 43 43 43 42 42 41 41 41 42 42 42 41 40 39 37 35 34 33 32 31 30 29 28 28 28 28 29 29 29 29 28 27 27 27 29 31 32 34 34 34 34 34 34 35 35 35 35 35 34 34 34 33 32 32 32 32 32 32 32 32 32 32 32 33 33 33 33 33 33 33 33 33 34 34 34 33 33 32 31 31 30 30 29 29 29 29 29 30 30 31 32 33 35 37 40 44 46 47 47 47 47 47 47 48 47 44 40 34 30 28 26 21 18 16 15 15 15 15 15 15 15 17 18 19 20 19 19 18 18 16 15 14 14 14 14 14 14 15 15 16 19 25 32 39 45 49 51 49 48 48 48 48 48 47 47 47 47 47 47 48 48 47 47 47 47 47 47 47 47 47 47 47 46 46 45 44 43 42 41 41 41 41 41 41 41 41 41 41 41 42 42 42 42 41 41 41 40 37 35 31 28 28 27 27 27 28 30 33 36 39 40 40 39 39 39 38 38 38 38 38 38 37 37 37 37 36 36 36 36 36 36 36 36 36 36 36 35 35 35 35 34 34 34 34 34 34 33 33 33 33 33 33 33 33 32 32 32 31 31 31 31 30 30 30 30 30 30 30 30 30 30 29 29 29 29 29 29 29 29 29 29 28 28 28 28 28 27 27 27 27 27 27 27 27 27 26 26 26 26 26 26 25 25 24 24 24 24 23 23 23 23 22 22 22 21 21 21 20 20 20 19 19 19 19 19 19 19 19 18 18 18 18 17 17 17 16 16 16 16 16 16 16 16 16 16 16 16 16 16 15 15 14 14 14 13 13 13 12 12 12 12 12 12 12 12 12 12 12 12 12 12 12 12 12 12 12 11 11 11 11 11 11 11 11 11 11 11 11 11 11 11 11 11 11 11 11 11 11 11 11 11 11 11 11 11 11 11 11 11 11 11 11 11 11 11 11 11 11 11 11 11 11 11 11 11 11 11 11 11 11 11 11 11 11 11 11 12 13 14 15 15 16 16 16 16 16 16 16 16 16 16 16 16 15 15 15 15 15 15 15 15 15 15 15 15 14 14 14 14 14 13 13 13 13 13.681007
