10 11 11 11 11 11 11 11 11 11 11 11 12 12 12 12 12 12 12 11 11 11 11 10 10 10 10 11 11 11 12 13 13 13 13 14 14 14 14 14 14 14 14 14 14 14 14 14 14 15 15 15 15 15 15 15 15 15 15 15 15 15 15 15 15 15 15 15 15 15 15 15 15 15 15 15 15 15 15 15 16 16 16 16 16 16 16 16 16 16 16 16 16 16 16 16 16 16 16 16 16 16 16 16 16 16 16 16 16 16 16 16 16 16 16 16 16 16 16 16 16 16 16 16 16 16 16 16 16 16 17 17 17 17 17 17 17 17 17 17 17 17 17 17 17 17 17 17 18 18 18 18 18 18 18 18 18 18 17 17 17 17 17 17 17 17 17 17 17 17 18 18 18 18 18 18 18 18 18 18 17 18 18 18 18 18 18 18 18 18 18 18 18 18 18 18 18 18 18 18 18 18 18 18 18 18 18 18 18 19 19 20 21 22 23 23 24 25 25 26 26 26 26 26 26 26 26 26 26 26 26 26 26 27 27 27 27 27 27 27 27 27 27 27 27 27 27 27 27 27 27 27 26 26 26 26 26 26 26 26 26 26 27 27 27 27 27 27 27 27 27 27 27 27 27 27 27 27 27 28 29 30 31 31 32 32 33 33 34 34 34 34 34 35 35 34 34 34 34 34 34 34 35 35 36 36 37 37 37 37 36 36 36 35 35 34 33 32 30 29 28 28 28 29 30 30 31 30 29 29 28 29 29 31 34 36 37 38 38 38 38 39 39 39 39 40 40 40 40 40 40 39 39 39 39 39 40 40 40 40 40 40 40 40 40 40 40 40 40 40 40 40 40 40 40 40 40 40 40 40 40 40 40 40 40 40 40 40 40 40 40 40 40 40 40 40 40 40 40 40 40 40 40 39 39 39 39 39 39 39 40 40 40 40 40 40 40 40 40 40 40 41 41 40 40 40 40 40 40 40 40 40 39 39 38 37 37 37 37 38 38 39 39 39 39 39 39 39 39 39 39 39 40 40 40 41 41 42 43 44 44 45 45 45 46 46 46 46 46 46 46 46 46 46 46 46 47 47 47 47 47 47 47 47 47 47 48 48 48 48 48 48 48 48 49 49 49 49 49 49 49 49 50 50 50 50 50 50 49 49 49 48 48 47 47 46 46 45 45 44 43 43 42 42 41 41 41 41 40 40 40 39 39 39 39 38 38 38 38 37 37 36 35 35 34 33 33 32 32 32 31 31 30 30 29 29 29 28 28 28 28 28 28 28 27 27 27 27 27 27 27 26 26 26 26 26 26 25 25 25 25 25 25 25 24 24 24 24 24 24 24 24 24 24 24 24 24 24 24 24 24 24 24 23 23 23 23 23 23 23 23 23 23 23 23 23 23 23 23 23 23 23 23 23 22 22 22 22 22 22 22 22 22 22 21 21 20 19 18 17 17 17 17 17 17 17 17 17 17 17 17 18 18 18 18 18 18 18 17 16 15 15 15 15 15 15 15 15 15 15 15 15 15 15 15 15 15 15 15 15 17 18 19 20 20 20 20 20 20 20 20 20 20 20 21 21 21 22 22 22 23 24 26 28 30 32 33 34 35 36 36 36 36 37 37 37 37 36 36 35 33 32 31 30 31 32 33 34 36 37 38 40 41 42 43 44 44 45 45 45 45 45 45 46 46 45 45 44 43 42 42 41 40 40 40 40 40 40 40 40 40 40 40 40 39 39 39 38 38 38 37 36 35 34 34 33 32 32 32 31 31 31 30 30 29 29 29 29 29 29 29 29 29 29 28 27 23 20 18 16 15 14 13 12 12 12 12 12 12 12 12 12 12 12 12 11 11 11 11 11 9 7 7 7 7 7 7 7 7 7 7 7 7 7 7 7 7 7 7 8 10 13 15 16 17 18 19 19 20 20 20 20 19 19 20 20 20 19 19 19 19 19 19 19 19 19 19 19 19 19 19 19 19 18 18 18 18 18 18 18 18 18 18 18 18 18 18 18 18 18 17 17 17 17 17 17 17 17 17 17 17 17 17 17 17 17 17 17 17 17 17 17 17 17 18 18 18 18 18 17 17 17 17 17 17 17 17 17 17 17 17 17 17 17 18 18 17 17 17 17 17 17 17 17 16 16 16 16 16 16 16 16 16 16 16 16 16 16 16 16 16 15 15 15 14 13 11 10 10 9 8 7 6 6 5 5 4 4 4 4 4 4 4 4 4 4 4 4 4 4 4 4 4 4 4 4 4 4 4 3 3 3 3 3 3 3 3 3 3 3 3 3 3 4 4 4 4 4 4 4.928586
10 11 11 11 11 11 11 11 11 11 11 12 12 12 12 12 12 12 12 11 11 11 11 11 11 10 10 11 11 11 12 13 13 13 13 14 14 14 14 14 14 14 14 14 14 14 15 15 15 15 15 15 15 15 15 15 15 15 15 15 15 15 15 15 15 15 15 15 15 15 15 15 15 15 15 15 15 15 15 16 16 16 16 16 16 16 16 16 16 16 16 16 16 16 16 16 16 16 16 16 16 16 16 16 16 16 16 16 16 16 16 16 16 16 16 16 16 16 16 16 16 16 16 16 16 17 17 17 17 17 17 17 17 17 17 17 17 17 17 17 17 17 17 17 17 18 18 18 18 18 18 18 18 18 18 18 18 18 18 18 17 17 17 17 17 17 17 18 18 18 18 18 18 18 18 18 18 18 18 18 18 18 18 18 18 18 18 18 18 18 18 18 18 18 18 18 18 18 18 18 18 18 18 18 18 18 18 19 19 19 20 21 22 23 23 24 24 25 25 26 26 26 26 26 26 26 26 26 26 26 26 26 26 26 27 27 27 27 27 27 27 27 27 27 27 27 27 27 27 27 27 26 26 26 26 26 26 26 26 26 26 26 26 26 26 26 27 27 27 27 27 27 27 27 27 27 27 27 27 28 29 30 31 31 32 32 33 33 34 34 34 34 34 34 34 34 34 34 33 33 33 34 34 35 36 36 36 36 37 36 36 36 35 35 34 34 33 32 30 29 28 28 28 29 30 30 31 30 29 29 29 29 30 32 34 36 37 38 38 38 38 38 39 39 39 40 40 40 40 40 40 40 39 39 39 39 40 40 40 40 40 40 40 40 40 40 40 40 40 40 40 40 40 40 40 40 40 40 40 40 40 40 40 40 39 40 40 40 40 40 40 40 40 40 40 40 40 40 40 40 40 40 40 39 39 39 39 39 39 39 40 40 40 40 40 40 40 40 40 40 41 41 41 41 40 40 40 40 40 40 40 40 39 39 38 38 37 37 37 38 39 39 39 39 39 39 39 39 39 39 39 39 40 40 40 41 41 42 43 44 44 45 45 46 46 46 46 46 46 46 46 46 46 46 46 47 47 47 47 47 47 47 47 47 47 48 48 48 48 48 48 49 49 49 49 49 49 49 49 49 50 50 50 50 50 50 50 50 50 49 49 49 48 48 47 47 46 46 45 44 44 43 43 42 42 42 41 41 41 40 40 40 40 39 39 39 39 38 38 38 37 37 36 35 35 34 33 33 33 32 32 31 31 30 29 29 29 29 29 28 28 28 28 28 27 27 27 27 27 27 27 26 26 26 26 26 26 26 25 25 25 25 25 25 25 25 25 24 24 24 24 24 24 24 24 24 24 24 24 24 24 24 24 24 24 24 23 23 23 23 23 23 23 23 23 23 23 23 23 23 23 23 23 23 23 23 23 23 23 22 22 22 22 22 22 21 20 19 18 17 17 17 17 17 17 17 17 17 17 17 17 17 18 18 18 18 18 18 16 16 15 15 15 15 15 15 15 15 15 15 15 15 15 15 15 15 15 15 15 15 16 17 18 19 19 19 20 20 20 20 20 20 20 21 21 21 21 22 22 22 22 23 24 25 26 27 28 30 31 32 33 34 35 36 37 37 37 37 36 35 34 33 31 31 31 32 33 34 35 37 38 40 41 42 43 44 44 45 45 46 46 46 46 46 46 46 45 45 43 42 41 41 40 40 40 40 40 40 40 40 40 40 39 39 38 38 37 37 36 36 35 34 34 33 33 32 32 32 31 31 31 30 30 30 29 29 29 29 29 29 29 29 29 29 28 27 24 21 18 16 15 13 13 12 12 12 12 12 12 12 12 12 12 12 12 12 12 12 11 11 9 8 7 7 7 7 7 7 7 7 7 7 7 7 7 7 7 7 7 8 10 13 15 17 18 19 19 19 20 20 20 20 19 19 20 20 20 19 19 19 19 19 19 19 19 19 19 19 19 19 19 19 18 18 18 18 18 18 18 18 18 18 18 18 18 18 18 18 18 18 18 18 17 17 17 17 17 17 17 17 17 17 17 17 17 17 17 17 17 17 17 17 17 17 17 17 17 17 17 17 17 17 17 17 17 17 17 17 17 17 17 17 17 17 17 18 18 17 17 17 17 17 17 17 16 16 16 16 16 16 16 16 16 16 16 16 16 16 16 16 16 16 15 15 14 13 12 10 10 9 8 7 6 6 5 5 4 4 4 4 4 4 4 4 4 4 4 4 4 4 4 4 4 4 4 4 4 4 4 3 3 3 3 3 3 3 3 3 3 3 3 3 3 4 4 4 4 4 4 4.915186
11 11 11 11 11 11 11 11 11 11 12 12 12 12 12 12 12 12 12 11 11 11 11 11 11 11 11 11 11 12 12 13 13 13 14 14 14 14 14 14 14 14 14 14 15 15 15 15 15 15 15 15 15 15 15 15 15 15 15 15 15 15 15 15 15 15 15 15 15 15 15 15 15 15 15 15 15 16 16 16 16 16 16 16 16 16 16 16 16 16 16 16 16 16 16 16 16 16 16 16 16 16 16 16 16 16 16 16 16 16 16 16 16 16 16 16 17 17 17 17 17 17 17 17 17 17 17 17 17 17 17 17 17 17 17 17 17 17 17 17 17 17 18 18 18 18 18 18 18 18 18 18 18 18 18 18 18 18 18 18 18 18 18 18 18 18 18 18 18 18 18 18 18 18 18 18 18 18 18 18 18 18 18 18 18 18 18 18 18 18 18 18 18 18 18 18 18 18 18 18 18 18 18 19 19 19 19 19 19 20 20 21 22 23 24 24 25 25 25 26 26 26 26 26 26 26 25 25 26 26 26 26 26 26 26 26 27 27 27 27 27 27 27 27 27 27 27 27 27 26 26 26 26 26 26 26 26 26 26 26 26 26 26 26 26 26 26 26 26 26 26 26 27 27 27 27 27 27 27 28 29 30 31 31 32 32 33 33 34 34 34 34 34 34 34 34 34 33 33 33 33 33 34 34 35 36 36 36 36 36 36 36 35 35 34 33 33 31 30 29 28 28 28 29 30 30 31 30 30 29 29 29 30 32 34 36 37 38 38 38 38 38 38 39 39 39 40 40 40 40 40 40 40 40 40 40 40 40 40 40 40 40 40 40 40 40 40 40 40 40 40 40 40 40 40 40 40 40 40 40 40 40 40 39 39 40 40 40 40 40 40 40 40 40 40 40 40 40 40 40 40 40 40 39 39 39 39 39 39 39 40 40 40 40 40 40 40 40 40 40 41 41 41 41 41 40 40 40 40 40 40 40 39 39 38 38 37 37 38 38 39 39 39 39 39 39 39 39 39 39 39 39 40 40 40 41 41 42 43 44 45 45 45 46 46 46 46 46 46 46 46 46 46 47 47 47 47 47 47 47 47 47 47 47 47 48 48 48 48 48 49 49 49 49 49 49 49 49 49 50 50 50 50 50 50 50 50 50 50 50 49 49 48 48 48 47 47 46 45 45 44 44 43 43 42 42 42 41 41 41 41 40 40 40 40 39 39 39 39 38 38 37 37 36 35 35 34 33 33 33 32 32 31 30 30 29 29 29 29 29 28 28 28 28 28 27 27 27 27 27 27 26 26 26 26 26 26 26 25 25 25 25 25 25 25 25 25 25 25 25 24 24 24 24 24 24 24 24 24 24 24 24 24 24 24 24 24 24 24 24 23 23 23 23 23 23 23 23 23 23 23 23 23 23 23 23 23 23 23 23 23 23 23 22 22 21 20 19 18 17 17 17 17 17 17 17 17 17 17 17 17 17 17 18 18 18 18 17 16 15 15 15 15 15 15 15 15 15 15 15 15 15 15 15 15 15 15 15 15 15 16 17 18 19 19 19 19 20 20 20 20 20 21 21 21 21 21 21 21 21 21 21 21 22 22 23 24 25 26 28 30 33 35 36 37 38 37 37 37 36 35 33 32 31 31 32 33 34 35 37 38 40 41 42 43 44 45 45 46 46 46 46 46 46 46 46 45 45 43 42 41 40 40 39 39 39 39 40 40 40 40 40 39 39 38 37 36 35 34 34 33 33 32 32 32 32 32 31 31 31 31 30 30 29 29 29 29 29 29 29 29 29 28 28 28 27 24 21 19 16 15 13 13 12 12 12 12 12 13 13 13 13 13 13 12 12 12 12 12 11 9 8 7 7 7 7 7 7 7 7 7 7 7 7 7 7 7 7 7 7 10 13 15 17 18 19 19 19 20 20 20 20 19 19 20 20 20 19 19 19 19 19 19 19 19 19 19 19 19 19 19 19 18 18 18 18 18 18 18 18 18 18 18 18 18 18 18 18 18 18 18 18 18 17 17 17 17 17 17 17 17 17 17 17 17 17 17 17 17 17 17 17 17 17 17 17 17 17 17 17 17 17 17 17 17 17 17 17 17 17 17 17 17 17 17 18 18 18 17 17 17 17 17 17 16 16 16 16 16 16 16 16 16 16 16 16 16 16 16 16 16 16 15 15 14 13 12 11 10 9 8 7 7 6 5 5 4 4 4 4 4 4 4 4 4 4 4 4 4 4 4 4 4 4 4 4 4 4 3 3 3 3 3 3 3 3 3 3 3 3 3 3 3 3 4 4 4 4 4 4.901786
11 11 11 11 11 11 11 11 11 12 12 12 12 12 12 12 12 12 12 11 11 11 11 11 11 11 11 11 11 12 12 13 13 13 14 14 14 14 14 14 14 14 15 15 15 15 15 15 15 15 15 15 15 15 15 15 15 15 15 15 15 15 15 15 15 15 15 15 15 15 16 16 16 16 16 16 16 16 16 16 16 16 16 16 16 16 16 16 16 16 16 16 16 16 16 16 16 16 16 16 16 16 16 16 16 16 16 16 16 16 16 16 16 16 17 17 17 17 17 17 17 17 17 17 17 17 17 17 17 17 17 17 17 17 17 17 17 17 17 17 18 18 18 18 18 18 18 18 18 18 18 18 18 18 18 18 18 18 18 18 18 18 18 18 18 18 18 18 18 18 18 18 18 18 18 18 18 18 18 18 18 18 18 18 18 18 18 18 18 18 18 18 18 18 18 18 18 19 19 19 19 19 19 19 19 19 19 19 20 20 21 22 23 24 24 25 25 25 25 25 26 26 26 26 25 25 25 25 26 26 26 26 26 26 26 26 26 27 27 27 27 27 27 27 27 27 27 27 26 26 26 26 26 26 26 26 26 26 26 26 26 26 26 26 26 26 26 26 26 26 26 26 26 26 27 27 27 27 27 28 29 30 31 31 32 32 33 33 33 34 34 34 34 34 34 33 33 33 33 33 33 33 33 34 35 35 35 36 36 36 35 35 35 34 34 33 32 31 30 29 28 28 28 29 30 30 31 30 29 29 29 30 30 32 34 36 37 37 38 38 38 38 38 38 39 39 40 40 40 40 40 40 40 40 40 40 40 40 40 40 40 40 40 40 40 40 40 40 40 40 40 40 40 40 40 40 40 40 40 40 40 40 39 39 39 39 40 40 40 40 40 40 40 40 40 40 40 40 40 40 40 40 40 39 39 39 39 39 39 39 40 40 40 40 40 40 40 40 40 41 41 41 41 41 41 41 40 40 40 40 40 40 40 39 38 38 37 37 38 38 39 39 39 39 39 39 39 39 39 39 39 39 39 40 40 41 41 42 43 44 45 45 45 46 46 46 46 46 46 46 46 47 47 47 47 47 47 47 47 47 47 47 47 47 48 48 48 48 49 49 49 49 49 49 49 49 49 50 50 50 50 50 50 50 50 50 50 50 50 50 50 49 49 48 48 47 47 46 46 45 45 44 44 43 43 42 42 42 42 41 41 41 40 40 40 40 40 39 39 39 38 38 37 37 36 35 35 34 34 33 33 32 31 31 30 29 29 29 29 29 29 28 28 28 28 28 27 27 27 27 27 26 26 26 26 26 26 26 26 26 25 25 25 25 25 25 25 25 25 25 25 25 25 25 24 24 24 24 24 24 24 24 24 24 24 24 24 24 24 24 24 24 24 24 23 23 23 23 23 23 23 23 23 23 23 23 23 23 23 23 23 23 23 23 22 22 20 19 17 17 17 17 17 17 17 17 17 17 17 17 17 17 17 17 17 17 17 17 16 15 15 15 15 15 15 15 15 15 15 15 15 15 15 15 15 15 15 15 15 15 16 16 17 18 19 19 19 19 20 20 20 20 21 21 21 21 21 21 21 21 21 21 21 21 21 21 22 22 23 25 27 29 32 34 36 37 37 37 37 36 35 34 32 31 31 32 33 34 35 37 39 40 42 43 44 44 45 45 46 46 46 46 46 46 46 46 45 44 43 42 41 40 40 39 39 39 39 39 39 39 39 39 38 37 36 35 34 33 33 33 32 32 32 31 31 31 31 31 31 31 30 30 30 29 29 28 28 28 28 28 28 28 28 27 27 26 24 21 18 16 14 13 13 13 13 13 13 13 13 13 13 13 13 13 13 13 13 13 12 11 10 8 7 7 7 7 7 7 7 7 7 7 7 7 7 7 7 7 7 8 10 13 15 17 18 19 19 20 20 20 20 20 19 19 19 20 20 19 19 19 19 19 19 19 19 19 19 19 19 19 19 19 18 18 18 18 18 18 18 18 18 18 18 18 18 18 18 18 18 18 18 18 18 18 17 17 17 17 17 17 17 17 17 17 17 17 17 17 17 17 17 17 17 17 17 17 17 17 17 17 17 17 17 17 17 17 17 17 17 17 17 17 17 17 18 18 18 18 17 17 17 17 17 17 17 16 16 16 16 16 16 16 16 16 16 16 16 16 16 16 16 16 15 15 14 13 12 11 10 9 8 7 7 6 5 5 4 4 4 4 4 4 4 4 4 4 4 4 4 4 4 4 4 4 4 4 4 4 3 3 3 3 3 3 3 3 3 3 3 3 3 3 3 3 4 4 4 4 4 4.854664
11 11 11 11 11 11 11 11 12 12 12 12 12 12 12 12 12 12 12 12 11 11 11 11 11 11 11 11 11 12 12 13 13 14 14 14 14 14 14 14 15 15 15 15 15 15 15 15 15 15 15 15 15 15 15 15 15 15 15 15 15 15 15 15 16 16 16 16 16 16 16 16 16 16 16 16 16 16 16 16 16 16 16 16 16 16 16 16 16 16 16 16 16 16 16 16 16 16 16 16 16 16 16 16 16 16 16 16 16 16 16 16 17 17 17 17 17 17 17 17 17 17 17 17 17 17 17 17 17 17 17 17 17 17 17 17 18 18 18 18 18 18 18 18 18 18 18 18 18 18 18 18 18 18 18 18 18 18 18 18 18 18 18 18 18 18 18 18 18 18 18 18 18 18 18 18 18 18 18 18 18 18 18 18 18 18 18 18 18 18 18 18 19 19 19 19 19 19 19 19 19 19 19 19 19 19 19 20 20 21 22 23 24 24 25 25 25 25 25 25 25 25 25 25 25 25 25 25 25 26 26 26 26 26 26 26 26 26 26 27 27 27 27 27 27 27 27 26 26 26 26 26 26 26 26 26 26 26 26 26 26 26 26 26 26 26 26 26 26 26 26 26 26 26 26 26 27 27 27 28 29 30 30 31 32 32 33 33 33 33 33 33 33 33 33 33 33 33 32 32 32 33 33 34 34 35 35 35 35 35 35 35 34 34 33 33 32 31 30 29 28 28 29 29 30 30 30 30 29 29 29 30 31 32 34 36 37 37 37 37 37 37 37 38 39 39 39 40 40 40 40 40 40 40 40 40 40 40 40 40 40 40 40 40 40 40 40 40 40 40 40 40 40 40 40 40 40 40 40 40 40 40 39 39 39 39 40 40 40 40 40 40 40 40 40 40 40 40 40 40 40 40 40 39 39 39 39 39 39 40 40 40 40 40 40 40 40 40 40 41 41 41 41 41 41 41 41 40 40 40 40 40 40 39 38 38 37 37 38 38 39 39 39 39 39 39 39 39 39 39 39 39 39 40 40 41 41 42 43 44 45 45 46 46 46 46 46 46 46 46 47 47 47 47 47 47 47 47 47 47 47 47 47 47 48 48 48 49 49 49 49 49 49 49 50 50 50 50 50 50 50 50 50 50 51 51 51 51 50 50 50 49 49 48 48 48 47 47 46 46 45 44 44 43 43 43 43 42 42 42 41 41 41 40 40 40 40 40 39 39 39 38 38 37 37 36 35 35 34 34 33 32 32 31 30 30 29 29 29 29 29 29 28 28 28 28 27 27 27 27 27 27 26 26 26 26 26 26 26 26 26 26 25 25 25 25 25 25 25 25 25 25 25 25 25 25 24 24 24 24 24 24 24 24 24 24 24 24 24 24 24 24 24 24 24 24 24 24 24 24 24 24 24 24 24 24 24 24 24 24 24 24 23 23 23 22 20 18 17 17 17 17 17 17 17 17 17 17 17 17 17 17 17 17 17 17 17 17 16 15 15 15 15 15 15 15 15 15 15 15 15 15 15 15 15 15 15 15 15 15 15 16 17 18 18 19 19 19 20 20 20 20 21 21 21 21 21 21 21 21 21 21 21 20 20 20 20 20 21 22 24 26 30 33 35 36 37 37 37 37 35 34 32 31 31 31 32 34 35 37 39 41 42 43 44 45 45 46 46 46 46 46 47 47 46 46 45 44 43 42 41 40 39 39 39 39 39 39 39 39 38 38 37 35 34 33 32 32 32 31 31 31 31 31 31 31 31 31 31 31 30 30 29 29 28 28 28 28 28 28 28 27 27 27 26 25 23 21 18 16 14 13 13 13 13 13 13 13 14 14 14 14 14 14 14 14 13 13 13 12 10 9 8 7 7 7 7 7 7 7 7 7 7 7 7 7 7 7 7 8 10 13 15 17 18 19 19 20 20 20 20 20 19 19 19 20 19 19 19 19 19 19 19 19 19 19 19 19 19 19 19 19 18 18 18 18 18 18 18 18 18 18 18 18 18 18 18 18 18 18 18 18 18 18 18 17 17 17 17 17 17 17 17 17 17 17 17 17 17 17 17 17 17 17 17 17 17 17 17 17 17 17 17 17 17 17 17 17 17 17 17 17 17 17 18 18 18 18 17 17 17 17 17 17 17 16 16 16 16 16 16 16 16 16 16 16 16 16 16 16 16 16 15 15 14 13 12 11 10 9 8 7 7 6 5 5 5 4 4 4 4 4 4 4 4 4 4 4 4 4 4 4 4 4 4 4 4 4 3 3 3 3 3 3 3 3 3 3 3 3 3 3 3 4 4 4 4 4 4 4.807542
11 11 11 11 11 11 11 12 12 12 12 12 12 12 12 12 12 12 12 12 11 11 11 11 11 11 11 11 11 12 12 13 13 14 14 14 14 14 14 15 15 15 15 15 15 15 15 15 15 15 15 15 15 15 15 15 15 15 15 16 16 16 16 16 16 16 16 16 16 16 16 16 16 16 16 16 16 16 16 16 16 16 16 16 16 16 16 16 16 16 16 16 16 16 16 16 16 16 16 16 16 17 17 17 17 17 17 17 17 17 17 17 17 17 17 17 17 17 17 17 17 17 17 17 17 17 17 17 17 17 17 17 18 18 18 18 18 18 18 18 18 18 18 18 18 18 18 18 18 18 18 18 18 18 18 18 18 18 18 18 18 18 18 18 18 18 18 18 18 18 18 18 18 18 18 18 18 18 18 18 18 18 18 18 18 18 18 18 18 19 19 19 19 19 19 19 19 19 19 19 19 19 19 19 19 20 20 20 21 21 22 23 24 24 25 25 25 25 25 25 25 25 25 25 25 25 26 26 26 26 26 26 26 26 26 26 26 26 26 26 27 27 27 27 27 26 26 26 26 26 26 26 26 26 26 26 26 26 26 26 26 26 26 26 26 26 26 26 26 26 26 26 26 26 26 26 27 27 27 28 29 30 30 31 32 32 32 33 33 33 33 33 33 33 33 33 32 32 32 32 32 32 33 33 34 34 34 35 35 35 34 34 34 33 33 32 31 30 29 29 28 28 29 29 30 30 30 30 29 29 29 30 31 33 35 36 37 37 37 37 37 37 37 37 38 38 39 39 39 39 39 39 39 39 39 40 40 40 40 40 40 40 40 40 40 40 40 40 40 40 40 40 40 40 40 40 40 40 40 40 40 40 39 39 39 39 39 40 40 40 40 40 40 40 40 40 40 40 40 40 40 40 40 39 39 39 39 39 39 40 40 40 40 40 40 40 40 40 41 41 41 41 41 41 41 41 41 41 40 40 40 40 40 39 38 38 38 38 38 38 39 39 39 39 39 39 39 39 39 39 39 39 39 40 40 41 41 42 43 44 45 45 46 46 46 46 46 46 46 47 47 47 47 47 47 47 47 47 47 47 47 47 47 48 48 48 49 49 49 49 49 50 50 50 50 50 50 50 50 50 50 50 51 51 51 51 51 51 51 50 50 49 49 49 48 48 47 47 46 46 45 44 44 44 43 43 43 43 42 42 42 41 41 41 41 40 40 40 40 39 39 39 38 38 37 36 36 35 34 34 33 33 32 31 30 30 29 29 29 29 29 29 28 28 28 28 28 27 27 27 27 27 27 27 26 26 26 26 26 26 26 26 26 26 25 25 25 25 25 25 25 25 25 25 25 25 25 25 25 24 24 24 24 24 24 24 24 24 24 24 24 24 24 24 24 24 24 24 24 24 24 24 24 24 24 24 24 24 24 24 24 24 24 23 23 22 20 18 17 17 17 17 17 17 17 17 17 17 17 17 17 17 17 17 17 17 17 17 16 15 15 15 15 15 15 15 15 15 15 15 15 15 15 15 15 15 15 15 15 15 15 16 17 18 18 18 19 19 19 20 20 20 20 21 21 21 21 21 21 21 21 21 21 21 20 20 20 20 20 21 23 25 28 31 34 35 36 37 37 37 35 34 32 31 31 31 33 34 35 37 39 41 42 43 44 45 45 46 46 46 46 46 46 46 46 46 45 44 43 41 41 40 39 39 38 38 38 38 37 37 36 35 34 33 33 32 32 31 31 31 31 31 31 31 31 30 30 30 30 30 29 29 28 28 27 27 27 27 27 27 27 27 26 26 25 24 23 20 18 16 14 14 13 13 14 14 14 14 14 15 15 15 15 15 15 14 14 14 13 12 10 9 8 7 7 7 7 7 7 7 7 7 7 7 7 7 7 7 7 8 10 13 15 17 18 19 19 20 20 20 20 20 19 19 19 19 19 19 19 19 19 19 19 19 19 19 19 19 19 19 19 19 19 18 18 18 18 18 18 18 18 18 18 18 18 18 18 18 18 18 18 18 18 18 18 18 17 17 17 17 17 17 17 17 17 17 17 17 17 17 17 17 17 17 17 17 17 17 17 17 17 17 17 17 17 17 17 17 17 17 17 17 17 18 18 18 18 18 18 17 17 17 17 17 17 16 16 16 16 16 16 16 16 16 16 16 16 16 16 16 16 16 15 15 14 13 12 11 10 9 8 8 7 6 6 5 5 4 4 4 4 4 4 4 4 4 4 4 4 4 4 4 4 4 4 4 4 4 4 3 3 3 3 3 3 3 3 3 3 3 3 3 4 4 4 4 4 4 4 4.7499046
11 11 11 11 11 11 12 12 12 12 12 12 12 12 12 12 12 12 12 12 11 11 11 11 11 11 11 11 11 12 13 13 13 14 14 14 14 14 14 15 15 15 15 15 15 15 15 15 15 15 15 15 15 15 15 16 16 16 16 16 16 16 16 16 16 16 16 16 16 16 16 16 16 16 16 16 16 16 16 16 16 16 16 16 16 16 16 16 16 16 16 16 16 16 16 16 17 17 17 17 17 17 17 17 17 17 17 17 17 17 17 17 17 17 17 17 17 17 17 17 17 17 17 17 17 17 17 17 17 18 18 18 18 18 18 18 18 18 18 18 18 18 18 18 18 18 18 18 18 18 18 18 18 18 18 18 18 18 18 18 18 18 18 18 18 18 18 18 18 18 18 18 18 18 18 18 18 18 18 18 18 18 18 18 18 18 18 18 19 19 19 19 19 19 19 19 19 19 19 19 19 19 19 20 20 20 20 21 21 22 23 24 24 25 25 25 25 25 25 25 25 25 25 25 25 26 26 26 26 26 26 26 26 26 26 26 26 26 26 26 26 26 26 26 26 26 26 26 26 26 26 26 26 26 26 26 26 26 26 26 26 26 26 26 26 26 26 26 26 26 26 26 26 26 26 26 27 27 27 28 29 29 30 31 31 32 32 32 33 33 33 33 33 33 32 32 32 32 32 32 32 32 32 33 33 34 34 34 34 34 34 33 33 33 32 31 31 30 29 29 28 28 29 29 29 30 30 30 29 29 29 30 31 33 35 36 36 37 37 36 36 36 36 37 37 38 39 39 39 39 39 39 39 39 39 40 40 40 40 40 40 40 40 40 40 40 40 40 40 40 40 40 40 40 40 40 40 40 40 40 40 39 39 39 39 39 39 40 40 40 40 40 40 40 40 40 40 40 40 40 40 40 40 39 39 39 39 39 40 40 40 40 40 40 40 40 40 41 41 41 41 41 41 41 41 41 41 41 41 41 40 40 40 39 39 38 38 38 38 39 39 39 39 39 39 39 39 39 39 39 39 39 39 40 40 41 41 42 43 44 45 45 46 46 46 46 46 46 47 47 47 47 47 47 47 47 47 47 47 47 47 47 48 48 48 48 49 49 49 50 50 50 50 50 50 50 50 50 50 50 51 51 51 51 51 51 51 51 51 51 50 50 49 49 48 48 47 47 46 46 45 44 44 44 43 43 43 43 43 42 42 42 41 41 41 41 40 40 40 40 40 39 39 38 38 37 36 36 35 34 34 33 32 31 31 30 30 29 29 29 29 29 29 28 28 28 28 28 28 27 27 27 27 27 27 27 26 26 26 26 26 26 26 26 26 26 25 25 25 25 25 25 25 25 25 25 25 25 25 25 25 25 24 24 24 24 24 24 24 24 24 24 24 24 24 24 24 24 24 24 24 24 24 24 24 24 24 24 25 25 25 24 24 24 23 22 20 18 17 17 17 17 17 17 17 17 17 17 17 17 17 17 17 17 17 17 17 17 16 15 15 15 15 15 15 15 15 15 15 15 15 15 15 15 15 15 15 15 15 15 15 16 17 17 18 18 18 19 19 20 20 20 20 21 21 21 21 21 21 21 21 21 21 21 21 21 20 20 20 21 22 24 27 30 33 35 36 37 37 36 35 34 32 31 31 32 33 34 36 38 40 41 43 44 44 45 45 46 46 46 46 46 46 46 46 45 45 44 42 41 40 40 39 38 38 37 37 37 36 35 34 33 32 31 31 31 31 31 31 31 31 31 31 31 30 30 30 30 29 29 29 28 27 27 27 26 26 26 26 26 26 26 25 25 24 23 22 20 18 15 15 14 14 14 14 14 14 15 15 16 16 16 16 16 15 15 15 14 13 12 11 9 8 7 7 7 7 7 7 7 7 7 7 7 7 7 7 7 7 8 10 13 16 18 18 19 20 20 20 20 20 20 19 19 19 19 19 19 19 19 19 19 19 19 19 19 19 19 19 19 19 19 19 19 18 18 18 18 18 18 18 18 18 18 18 18 18 18 18 18 18 18 18 18 18 18 18 18 17 17 17 17 17 17 17 17 17 17 17 17 17 17 17 17 17 17 17 17 17 17 17 17 17 17 17 17 17 17 17 17 17 17 17 18 18 18 18 18 18 17 17 17 17 17 17 16 16 16 16 16 16 16 16 16 16 16 16 16 16 16 16 16 15 15 14 13 12 11 10 9 8 8 7 6 6 5 5 4 4 4 4 4 4 4 4 4 4 4 4 4 4 4 4 4 4 4 4 4 4 4 4 4 4 3 3 3 3 3 3 3 3 3 4 4 4 4 4 4 4 4.6922674
11 11 11 11 11 11 12 12 12 12 12 12 12 12 12 12 12 12 12 12 11 11 11 11 11 11 11 11 11 12 13 13 14 14 14 14 14 14 15 15 15 15 15 15 15 15 15 15 15 15 15 16 16 16 16 16 16 16 16 16 16 16 16 16 16 16 16 16 16 16 16 16 16 16 16 16 16 16 16 16 16 16 16 16 16 16 16 16 16 16 16 17 17 17 17 17 17 17 17 17 17 17 17 17 17 17 17 17 17 17 17 17 17 17 17 17 17 17 17 17 17 17 18 18 18 18 18 18 18 18 18 18 18 18 18 18 18 18 18 18 18 18 18 18 18 18 18 18 18 18 18 18 18 18 18 18 18 18 18 18 18 18 18 18 18 18 18 18 18 18 18 18 18 18 18 18 18 18 18 18 18 18 18 18 18 19 19 19 19 19 19 19 19 19 19 19 19 19 19 19 19 20 20 20 20 20 21 21 22 22 23 24 24 25 25 25 25 25 25 25 25 25 25 25 26 26 26 26 26 26 26 26 26 26 26 26 26 26 26 26 26 26 26 26 26 26 26 26 26 26 26 26 26 26 26 26 26 26 26 26 26 26 26 26 26 26 26 26 26 26 26 26 26 26 26 26 26 27 27 28 28 29 30 30 31 31 31 32 32 32 32 32 32 32 32 32 32 32 31 31 31 32 32 32 33 33 33 33 33 33 33 33 32 32 32 31 30 30 29 29 28 28 29 29 29 29 30 30 29 29 30 31 32 33 35 36 36 36 36 36 36 36 36 37 37 38 38 38 39 39 39 39 39 39 39 39 39 40 40 40 40 40 40 40 41 41 41 41 41 40 40 40 40 40 40 39 39 39 39 39 39 39 39 39 39 39 39 39 40 40 40 40 40 40 40 40 40 40 40 40 40 40 40 40 39 39 39 39 40 40 40 40 40 40 40 40 40 41 41 41 41 41 41 41 41 41 41 41 41 41 41 40 40 39 39 38 38 38 38 39 39 39 39 39 39 39 39 39 39 39 39 39 39 40 40 41 42 42 44 44 45 46 46 46 46 46 47 47 47 47 47 47 47 47 47 47 47 47 47 47 48 48 48 48 48 49 49 49 50 50 50 50 50 50 50 50 50 50 51 51 51 51 51 51 51 51 51 51 51 51 50 50 49 49 48 48 47 47 46 45 45 44 44 44 43 43 43 43 43 42 42 42 41 41 41 41 41 40 40 40 40 40 39 39 38 38 37 36 35 35 34 33 33 32 31 30 30 30 29 29 29 29 29 29 28 28 28 28 28 28 27 27 27 27 27 27 27 26 26 26 26 26 26 26 26 26 26 26 25 25 25 25 25 25 25 25 25 25 25 25 25 25 25 25 25 25 25 25 25 25 25 25 25 25 25 25 25 25 24 24 24 24 24 25 25 25 25 25 25 25 25 25 24 24 23 22 20 18 17 17 17 17 17 17 17 17 17 17 17 17 17 17 17 17 17 17 17 17 16 15 15 15 15 15 15 15 15 15 15 15 15 15 15 15 15 15 15 15 15 15 15 16 17 17 18 18 18 19 19 19 20 20 20 20 21 21 21 21 21 21 21 21 21 21 21 21 21 20 20 21 22 24 27 30 32 34 35 36 36 35 34 33 32 31 31 31 33 34 36 38 40 42 43 44 44 45 45 45 45 46 45 45 45 45 45 45 44 43 42 41 40 39 38 37 37 36 35 35 34 33 32 32 31 31 30 30 30 31 31 31 31 31 30 30 30 30 30 29 29 28 28 27 27 26 26 26 26 26 26 26 26 26 25 24 24 23 21 20 18 16 15 14 14 14 14 15 15 15 16 16 16 17 17 16 16 16 15 14 13 12 11 10 8 7 7 7 7 7 7 7 7 7 7 7 7 7 7 7 7 8 11 14 16 18 19 19 20 20 20 20 20 20 19 19 19 19 19 19 19 19 19 19 19 19 19 19 19 19 19 19 19 19 19 19 19 18 18 18 18 18 18 18 18 18 18 18 18 18 18 18 18 18 18 18 18 18 18 18 18 18 17 17 17 17 17 17 17 17 17 17 17 17 17 17 17 17 17 17 17 17 17 17 17 17 17 17 17 17 17 17 17 17 18 18 18 18 18 18 18 18 17 17 17 17 17 17 16 16 16 16 16 16 16 16 16 16 16 16 16 16 16 16 15 15 14 13 12 11 10 9 9 8 7 7 6 5 5 4 4 4 4 4 4 4 4 4 4 4 4 4 4 4 4 4 4 4 4 4 4 4 4 4 4 3 3 3 3 3 3 3 3 3 4 4 4 4 4 4 4 4.6389327
11 11 11 11 11 11 12 12 12 12 12 12 12 12 12 12 12 12 12 12 12 11 11 11 11 11 11 11 12 12 13 13 14 14 14 14 14 15 15 15 15 15 15 15 15 15 15 15 16 16 16 16 16 16 16 16 16 16 16 16 16 16 16 16 16 16 16 16 16 16 16 16 16 16 16 16 16 16 16 16 17 17 17 17 17 17 17 17 17 17 17 17 17 17 17 17 17 17 17 17 17 17 17 17 17 17 17 17 17 17 17 17 17 17 17 17 17 17 17 18 18 18 18 18 18 18 18 18 18 18 18 18 18 18 18 18 18 18 18 18 18 18 18 18 18 18 18 18 18 18 18 18 18 18 18 18 18 18 18 18 18 18 18 18 18 18 18 18 18 18 18 18 18 19 19 19 19 19 19 19 19 19 18 19 19 19 19 19 19 19 19 19 19 19 19 19 19 19 19 20 20 20 20 20 20 21 21 21 22 23 23 24 24 24 25 25 25 25 25 25 25 25 25 25 26 26 26 26 26 26 26 26 26 26 26 26 26 26 26 26 26 26 26 26 26 26 26 26 26 26 26 26 26 26 26 26 26 26 26 26 26 26 26 26 26 26 26 26 26 26 26 26 26 26 26 26 26 27 27 27 28 29 29 30 30 30 31 31 31 31 31 31 31 31 31 31 31 31 31 31 31 31 32 32 32 33 33 33 33 33 33 32 32 31 31 30 30 29 29 28 28 28 29 29 29 29 29 29 29 30 30 31 32 33 35 35 36 36 36 36 36 36 36 36 37 37 38 38 38 38 38 39 39 39 39 39 39 40 40 40 40 40 41 41 41 41 41 41 41 41 40 40 40 40 39 39 39 39 39 39 39 39 39 39 39 39 39 39 39 40 40 40 40 40 40 40 40 40 40 40 40 40 40 40 39 39 39 40 40 40 40 40 40 40 40 40 41 41 41 41 41 41 41 41 41 41 41 41 41 41 41 40 40 39 39 38 38 38 39 39 39 39 39 39 39 39 39 39 39 39 39 39 39 40 40 41 42 43 44 45 45 46 46 46 46 47 47 47 47 47 47 47 47 47 47 47 47 48 48 48 48 48 48 48 49 49 49 50 50 50 50 51 51 51 51 51 51 51 51 51 51 51 51 52 52 52 52 52 51 51 50 50 49 49 48 48 47 47 46 45 45 44 44 44 43 43 43 43 43 43 42 42 42 41 41 41 41 41 40 40 40 40 40 39 39 38 37 37 36 35 34 34 33 32 31 30 30 30 30 30 29 29 29 29 29 28 28 28 28 28 28 28 27 27 27 27 27 27 27 26 26 26 26 26 26 26 26 26 26 26 26 26 25 25 25 25 25 25 25 25 25 25 25 25 25 25 25 25 25 25 25 25 25 25 25 25 25 25 25 25 25 25 25 25 25 25 25 25 25 25 25 25 24 24 24 23 20 18 17 17 17 17 17 17 17 17 17 17 17 17 17 17 17 17 17 17 17 17 16 16 15 15 15 15 15 15 15 15 15 15 15 15 15 15 15 15 15 15 15 15 15 16 16 17 17 18 18 19 19 19 20 20 20 20 20 21 21 21 21 21 21 21 21 21 21 21 21 21 20 21 22 24 27 30 32 33 34 35 35 34 33 32 31 30 31 31 33 34 36 38 40 42 43 44 44 45 45 45 45 45 45 45 45 45 45 45 44 43 41 40 39 38 37 36 35 35 34 33 32 31 31 30 30 30 30 30 30 30 30 31 30 30 30 30 30 29 29 29 28 28 27 27 26 26 26 25 25 26 26 26 26 25 25 24 23 22 21 19 18 16 15 15 15 15 15 15 15 16 16 17 17 17 17 17 16 16 15 15 13 12 11 10 8 7 7 7 7 7 7 7 7 7 7 7 7 7 7 7 7 8 11 14 16 18 19 19 20 20 20 20 20 20 20 19 19 20 19 19 19 19 19 19 19 19 19 19 19 19 19 19 19 19 19 19 19 19 18 18 18 18 18 18 18 18 18 18 18 18 18 18 18 18 18 18 18 18 18 18 18 18 18 18 17 17 17 17 17 17 17 17 17 17 17 17 17 17 17 17 17 17 17 17 17 17 17 17 17 17 17 17 17 18 18 18 18 18 18 18 18 18 17 17 17 17 17 17 16 16 16 16 16 16 16 16 16 16 16 16 16 16 16 16 16 15 14 13 12 11 10 9 9 8 8 7 6 5 5 4 4 4 4 4 4 4 4 4 4 4 4 4 4 4 4 4 4 4 4 4 4 4 4 4 4 3 3 3 3 3 3 3 3 3 4 4 4 4 4 4 4 4.585598
11 11 11 11 11 12 12 12 12 12 12 12 12 12 12 12 12 12 12 12 12 12 11 11 11 11 11 12 12 12 13 13 14 14 14 14 14 15 15 15 15 15 15 15 15 15 16 16 16 16 16 16 16 16 16 16 16 16 16 16 16 16 16 16 16 16 16 16 16 16 16 16 16 17 17 17 17 17 17 17 17 17 17 17 17 17 17 17 17 17 17 17 17 17 17 17 17 17 17 17 17 17 17 17 17 17 17 17 17 17 17 17 17 17 18 18 18 18 18 18 18 18 18 18 18 18 18 18 18 18 18 18 18 18 18 18 18 18 18 18 18 18 18 18 18 18 18 18 18 18 18 18 18 18 18 18 18 18 18 18 18 18 18 18 18 18 18 18 18 18 18 19 19 19 19 19 19 19 19 19 19 19 19 19 19 19 19 19 19 19 19 19 19 19 19 19 20 20 20 20 20 20 20 20 21 21 21 22 22 23 23 24 24 24 25 25 25 25 25 25 25 25 25 26 26 26 26 26 26 26 26 26 26 26 26 26 26 26 26 26 26 26 26 26 26 26 26 26 26 26 26 26 26 26 26 26 26 26 26 26 26 26 26 26 26 26 26 26 26 26 26 26 26 26 26 26 26 26 27 27 27 28 28 28 29 29 29 29 30 30 30 30 30 30 30 30 30 31 31 31 31 31 31 31 32 32 32 32 32 32 32 32 31 31 31 30 30 29 29 28 28 28 29 29 29 29 29 29 30 30 30 31 32 33 35 35 36 36 36 36 36 36 36 36 37 37 38 38 38 38 38 38 38 38 38 39 39 39 39 39 40 40 40 40 40 40 40 40 40 40 40 39 39 39 39 38 38 38 38 38 38 38 38 38 39 39 39 39 39 39 39 40 40 40 40 40 40 40 40 40 40 40 40 40 40 39 39 40 40 40 40 40 40 40 40 40 41 41 41 41 41 41 41 41 41 41 41 41 41 41 41 41 40 40 39 38 38 38 39 39 39 39 39 39 39 39 39 39 39 39 39 39 39 40 40 41 42 43 44 45 46 46 46 46 47 47 47 47 47 47 47 47 47 47 48 48 48 48 48 48 48 48 48 49 49 49 50 50 50 51 51 51 51 51 51 51 51 51 51 51 51 52 52 52 52 52 52 52 52 51 51 50 49 48 48 48 47 47 46 45 45 44 44 44 43 43 43 43 43 43 42 42 42 41 41 41 41 41 41 40 40 40 40 40 39 39 38 37 36 36 35 34 33 32 31 31 30 30 30 30 29 29 29 29 29 29 28 28 28 28 28 28 28 27 27 27 27 27 27 27 26 26 26 26 26 26 26 26 26 26 26 26 26 26 26 26 25 25 25 25 25 25 25 25 25 25 25 25 25 25 25 25 25 25 25 25 25 25 25 25 25 25 25 25 25 25 25 25 26 26 26 25 25 24 24 23 20 18 18 17 17 17 17 17 17 17 17 17 17 17 17 17 17 17 17 18 17 17 16 16 15 15 15 15 15 15 15 15 15 15 15 15 15 15 15 15 15 15 15 15 16 16 17 17 17 18 18 19 19 19 19 20 20 20 20 21 21 21 21 21 21 21 21 21 21 21 21 21 21 21 22 24 27 30 31 33 33 34 33 32 31 30 30 29 30 31 32 34 36 38 40 42 43 44 44 45 45 45 45 45 45 45 45 45 45 44 43 42 41 39 38 37 36 35 34 33 33 32 31 30 30 30 30 30 30 30 30 30 30 30 30 30 30 30 29 29 29 28 28 28 27 27 26 26 26 26 26 26 26 26 26 26 25 24 23 22 20 19 18 16 16 15 15 15 15 15 16 16 16 17 17 17 17 17 17 16 15 15 13 12 11 10 8 7 7 7 7 7 7 7 7 7 7 7 7 7 7 7 7 8 11 14 16 19 19 20 20 20 20 20 20 20 20 20 20 20 20 19 19 19 19 19 19 19 19 19 19 19 19 19 19 19 19 19 19 19 19 18 18 18 18 18 18 18 18 18 18 18 18 18 18 18 18 18 18 18 18 18 18 18 18 18 17 17 17 17 17 17 17 17 17 17 17 17 17 17 17 17 17 17 17 17 17 17 17 17 17 17 17 17 18 18 18 18 18 18 18 18 18 18 18 17 17 17 17 17 16 16 16 16 16 16 16 16 16 16 16 16 16 16 16 16 16 15 14 13 12 11 11 10 9 8 8 7 6 5 5 4 4 4 4 4 4 4 4 4 4 4 4 4 4 4 4 4 4 4 4 4 4 4 4 4 4 3 3 3 3 3 3 3 3 3 4 4 4 4 4 4 4 4.5475287
11 11 11 11 11 12 12 12 12 12 12 12 12 12 12 12 12 12 12 12 12 12 11 11 11 11 11 12 12 12 13 13 14 14 14 14 15 15 15 15 15 15 15 15 15 16 16 16 16 16 16 16 16 16 16 16 16 16 16 16 16 16 16 16 16 16 17 17 17 17 17 17 17 17 17 17 17 17 17 17 17 17 17 17 17 17 17 17 17 17 17 17 17 17 17 17 17 17 17 17 17 17 17 17 17 17 17 17 17 17 17 18 18 18 18 18 18 18 18 18 18 18 18 18 18 18 18 18 18 18 18 18 18 18 18 18 18 18 18 18 18 18 18 18 18 18 18 18 18 18 18 18 18 18 18 18 18 18 18 18 18 18 18 18 18 18 18 18 18 18 19 19 19 19 19 19 19 19 19 19 19 19 19 19 19 19 19 19 19 19 19 19 19 19 20 20 20 20 20 20 20 20 20 21 21 21 22 22 22 23 23 24 24 24 24 25 25 25 25 25 25 25 26 26 26 26 26 26 26 26 26 26 26 26 26 26 26 26 26 26 26 26 26 26 26 26 26 26 26 26 26 26 26 26 26 26 26 26 26 26 26 26 26 26 26 26 26 26 26 26 26 26 26 26 26 26 26 26 26 26 27 27 27 27 27 27 28 28 28 28 29 29 29 29 29 30 30 30 30 30 30 30 31 31 31 32 32 32 32 32 31 31 31 31 31 30 30 29 29 29 28 29 29 29 29 29 29 30 30 30 30 31 32 33 34 35 35 36 36 36 36 36 36 36 37 37 37 37 37 38 38 38 38 38 38 38 38 38 39 39 39 39 40 40 40 40 39 39 39 39 39 39 38 38 38 38 37 37 37 37 37 37 37 38 38 38 39 39 39 39 39 39 39 40 40 40 40 40 40 40 40 40 40 40 40 40 40 40 40 40 40 40 40 40 40 40 41 41 41 41 41 41 41 41 41 41 41 41 41 41 41 41 40 40 39 39 38 38 39 39 39 39 39 39 39 39 39 39 39 39 39 39 39 40 40 41 42 43 44 45 46 46 46 47 47 47 47 47 47 47 47 47 48 48 48 48 48 48 48 48 48 48 49 49 49 50 50 50 51 51 51 51 51 51 51 51 51 51 51 51 52 52 52 52 52 52 52 52 52 51 51 50 49 48 48 47 47 46 46 45 44 44 44 43 43 43 43 43 43 43 42 42 42 42 41 41 41 41 41 41 40 40 40 40 40 39 38 38 37 36 35 35 34 33 32 31 30 30 30 30 29 29 29 29 29 29 29 28 28 28 28 28 28 28 27 27 27 27 27 27 27 26 26 26 26 26 26 26 26 26 26 26 26 26 26 26 26 26 26 26 26 26 26 26 26 26 26 26 26 26 26 26 26 26 26 26 26 25 25 25 25 25 25 25 25 25 26 26 26 26 26 26 25 24 24 23 20 18 18 17 17 17 17 17 17 17 17 17 17 17 17 17 17 17 18 18 18 17 16 16 15 15 15 15 15 15 15 15 15 15 15 15 15 15 15 15 15 15 15 15 16 16 17 17 17 18 18 18 19 19 19 20 20 20 20 20 21 21 21 21 21 21 21 21 21 21 21 21 21 21 22 24 27 30 31 33 33 32 32 31 29 28 28 28 29 30 32 33 35 38 40 42 43 44 44 45 45 45 45 45 45 45 45 45 44 44 43 42 40 39 37 36 35 34 33 32 31 31 30 30 29 29 29 29 29 29 30 30 30 30 30 30 29 29 29 29 28 28 28 28 27 27 27 26 26 26 26 26 26 26 26 26 25 24 23 22 20 19 18 17 16 16 15 15 15 16 16 16 17 17 17 17 17 17 17 16 15 15 13 12 11 10 9 7 7 7 7 7 7 7 7 7 7 7 7 7 7 7 7 8 11 14 17 19 19 20 20 20 20 20 20 20 20 20 20 20 20 20 20 19 19 19 19 19 19 19 19 19 19 19 19 19 19 19 19 19 19 18 18 18 18 18 18 18 18 18 18 18 18 18 18 18 18 18 18 18 18 18 18 18 18 18 18 17 17 17 17 17 17 17 17 17 17 17 17 18 18 18 18 18 18 18 18 18 18 17 17 18 18 18 18 18 18 18 18 18 18 18 18 18 18 18 17 17 17 17 17 16 16 16 16 16 16 16 16 16 16 16 16 16 16 16 16 15 14 14 13 12 11 10 9 9 8 8 6 5 5 4 4 4 4 4 4 4 4 4 4 4 4 4 4 4 4 4 4 4 4 4 4 4 4 4 4 3 3 3 3 3 3 3 3 3 4 4 4 4 4 4 4 4.5094595
11 11 11 11 11 12 12 12 12 12 12 12 12 12 12 12 13 13 12 12 12 12 12 12 11 11 11 12 12 13 13 13 14 14 14 14 15 15 15 15 15 15 15 15 15 16 16 16 16 16 16 16 16 16 16 16 16 16 16 16 16 17 17 17 17 17 17 17 17 17 17 17 17 17 17 17 17 17 17 17 17 17 17 17 17 17 17 17 17 17 17 17 17 17 17 17 17 17 17 17 17 17 17 17 18 18 18 18 18 18 18 18 18 18 18 18 18 18 18 18 18 18 18 18 18 18 18 18 18 18 18 18 18 18 18 18 18 18 18 18 18 18 18 18 18 18 18 18 18 18 18 18 18 18 18 18 18 18 18 18 18 18 18 18 18 18 18 18 19 19 19 19 19 19 19 19 19 19 19 19 19 19 19 19 19 19 19 19 19 19 20 20 20 20 20 20 20 20 20 20 20 20 21 21 21 21 22 22 22 23 23 24 24 24 24 25 25 25 25 25 25 25 26 26 26 26 26 26 26 26 26 26 26 26 26 26 26 26 26 26 26 26 26 26 26 26 26 26 26 26 26 26 26 26 26 26 26 26 26 26 26 26 26 26 26 26 26 26 26 26 26 26 26 26 26 26 26 26 26 26 26 26 26 26 27 27 27 27 27 27 28 28 28 28 28 29 29 29 29 29 29 30 30 30 31 31 31 31 31 31 31 31 31 30 30 30 30 29 29 29 28 29 29 29 29 29 29 30 30 30 30 31 32 33 34 35 35 35 35 35 35 36 36 36 36 37 37 37 37 37 37 37 37 37 37 37 37 37 37 37 36 36 36 36 36 36 35 35 35 35 35 35 35 35 35 35 35 35 35 35 35 36 36 37 37 38 38 38 39 39 39 39 39 39 39 40 40 40 40 40 40 40 40 40 40 40 40 40 40 40 40 40 40 40 40 41 41 41 41 41 41 41 41 41 41 41 41 41 41 41 41 41 40 40 39 39 38 39 39 39 39 39 39 39 39 39 39 39 39 39 39 39 40 40 40 41 42 43 44 45 46 46 46 47 47 47 47 47 47 47 48 48 48 48 48 48 48 48 48 48 48 49 49 49 50 50 50 51 51 51 51 52 52 52 52 52 51 51 51 52 52 52 52 52 53 53 53 52 52 52 51 50 49 48 48 47 47 46 46 45 44 44 44 43 43 43 43 43 43 43 42 42 42 42 41 41 41 41 41 41 41 40 40 40 40 39 39 38 37 37 36 35 34 33 32 31 31 30 30 30 30 29 29 29 29 29 29 28 28 28 28 28 28 28 27 27 27 27 27 27 27 27 26 26 26 26 26 26 26 26 26 26 26 26 26 26 26 26 26 26 26 26 26 26 26 26 26 26 26 26 26 26 26 26 26 26 26 26 26 26 26 26 26 26 26 26 26 26 26 26 26 26 25 24 24 23 20 18 18 17 18 18 17 17 17 17 17 17 17 17 17 17 17 17 18 18 18 17 17 16 16 15 15 15 15 15 15 15 15 15 15 15 15 15 15 15 15 15 15 16 16 16 17 17 18 18 18 19 19 19 19 19 20 20 20 20 21 21 21 21 21 21 21 22 21 21 21 21 21 21 22 24 27 30 31 32 32 31 30 29 28 27 27 27 28 29 31 33 35 37 40 42 43 44 44 45 45 45 45 45 45 45 45 44 44 43 42 40 39 37 36 35 34 33 32 31 30 30 30 29 29 29 29 29 29 29 29 29 29 29 29 29 29 29 29 29 28 28 28 28 28 27 27 27 27 26 27 27 27 27 27 26 25 24 22 21 20 19 18 17 16 16 16 16 16 16 16 16 17 17 17 17 17 17 17 16 15 14 13 12 11 10 9 7 7 7 7 7 7 7 7 7 7 7 7 7 7 7 7 8 11 14 17 19 19 20 20 20 20 20 20 20 20 20 20 20 20 20 20 20 20 20 19 19 19 19 19 19 19 19 19 19 19 19 19 19 19 19 18 18 18 18 18 18 18 18 18 18 18 18 18 18 18 18 18 18 18 18 18 18 18 18 18 18 17 17 17 17 17 17 17 17 17 18 18 18 18 18 18 18 18 18 18 18 18 18 18 18 18 18 18 18 18 18 18 18 18 18 18 18 18 18 17 17 17 17 17 16 16 16 16 16 16 16 16 16 16 16 16 16 16 16 16 15 15 14 13 12 11 10 10 9 9 8 7 6 5 4 4 4 4 4 4 4 4 4 4 4 4 4 4 4 4 4 4 4 4 4 4 4 4 4 3 3 3 3 3 3 3 3 3 3 3 4 4 4 4 4 4 4.4767876
11 11 11 11 11 12 12 12 12 12 12 12 12 12 12 12 13 13 13 12 12 12 12 12 12 12 12 12 12 13 13 14 14 14 14 15 15 15 15 15 15 15 15 15 16 16 16 16 16 16 16 16 16 16 16 16 16 17 17 17 17 17 17 17 17 17 17 17 17 17 17 17 17 17 17 17 17 17 17 17 17 17 17 17 17 17 17 17 17 17 17 17 17 17 17 17 17 18 18 18 18 18 18 18 18 18 18 18 18 18 18 18 18 18 18 18 18 18 18 18 18 18 18 18 18 18 18 18 18 18 18 18 18 18 18 18 18 18 19 19 19 19 19 19 19 19 19 19 19 19 19 19 19 19 19 19 19 19 19 19 19 19 19 19 19 19 19 19 19 19 19 19 19 19 19 19 19 19 19 19 19 19 19 19 19 19 19 19 20 20 20 20 20 20 20 20 20 20 20 20 20 21 21 21 21 21 22 22 22 23 23 23 24 24 24 25 25 25 25 25 25 25 26 26 26 26 26 26 26 26 26 26 26 26 26 26 26 26 26 26 26 26 26 26 26 26 26 26 26 26 26 26 26 26 26 26 26 26 26 26 26 26 26 26 26 26 26 26 26 26 26 26 26 26 26 26 26 26 26 26 26 26 26 26 26 26 26 26 26 26 27 27 27 27 27 28 28 28 28 28 29 29 29 29 30 30 30 30 30 30 30 30 30 30 30 30 30 29 29 29 28 29 29 29 29 29 29 30 30 30 31 31 32 33 34 34 34 35 35 35 35 35 36 36 36 37 37 37 37 37 37 36 36 36 36 36 36 35 35 34 34 33 33 32 32 31 31 31 31 31 31 32 32 32 33 33 33 33 33 33 34 34 35 35 36 37 37 38 38 38 39 39 39 39 39 39 40 40 40 40 40 40 40 40 40 40 40 40 40 40 40 40 40 40 40 41 41 41 41 41 41 41 42 41 41 41 41 41 41 41 41 41 40 40 39 39 38 39 39 39 39 39 39 39 39 39 39 39 39 39 39 39 40 40 40 41 42 43 44 45 46 46 47 47 47 47 47 47 47 48 48 48 48 48 48 48 48 48 48 48 49 49 49 49 50 50 51 51 51 52 52 52 52 52 52 52 52 52 52 52 52 52 53 53 53 53 53 53 52 52 51 50 49 48 48 47 47 46 46 45 44 44 44 43 43 43 43 43 43 43 42 42 42 42 42 41 41 41 41 41 41 41 40 40 40 40 39 39 38 37 36 36 35 34 33 32 31 30 30 30 30 29 29 29 29 29 29 29 28 28 28 28 28 28 28 27 27 27 27 27 27 27 27 26 26 26 26 26 26 26 26 26 26 26 26 26 26 26 26 26 26 26 26 26 26 26 26 26 26 26 26 26 26 26 26 26 26 26 26 26 26 26 26 26 26 26 26 26 26 26 26 26 25 25 24 23 21 19 18 17 18 18 17 17 17 17 17 17 17 17 17 17 17 17 18 18 18 18 17 16 16 15 15 15 15 15 15 15 15 15 15 15 15 15 15 15 15 15 15 16 16 16 17 17 18 18 18 19 19 19 19 19 20 20 20 20 20 21 21 21 21 21 21 22 22 21 21 21 21 21 23 24 27 30 31 32 31 30 29 27 26 25 25 26 27 29 30 32 35 37 40 42 43 44 44 45 45 45 46 46 45 45 44 44 43 42 40 39 37 36 35 34 33 32 31 30 30 29 29 29 29 29 29 29 29 29 29 29 29 29 29 29 29 29 29 28 28 28 28 28 28 28 28 27 27 27 27 27 27 28 27 27 25 24 22 21 20 18 18 17 17 16 16 16 16 16 16 16 16 17 17 17 17 17 17 16 15 14 13 12 11 10 9 7 7 7 7 7 7 7 7 7 7 7 7 7 7 7 7 7 11 14 17 19 19 20 20 20 20 20 20 20 20 20 20 20 20 20 20 20 20 20 20 20 20 19 19 19 19 19 19 19 19 19 19 19 19 19 19 18 18 18 18 18 18 18 18 18 18 18 18 18 18 18 18 18 18 18 18 18 18 18 18 18 18 18 17 17 17 17 17 17 18 18 18 18 18 18 18 18 18 18 18 18 18 18 18 18 18 18 18 18 18 18 18 18 18 18 18 18 18 18 18 17 17 17 17 17 16 16 16 16 16 16 16 16 16 16 16 16 16 16 16 15 15 14 13 12 11 11 10 9 9 8 7 6 5 4 4 4 4 4 4 4 4 4 4 4 4 4 4 4 4 4 4 4 4 4 4 4 4 4 3 3 3 3 3 3 3 3 3 3 3 4 4 4 4 3 4 4.4441156
11 11 11 12 12 12 12 12 12 12 12 12 12 12 12 13 13 13 13 12 12 12 12 12 12 12 12 12 12 13 13 14 14 14 14 15 15 15 15 15 15 15 15 16 16 16 16 16 16 16 16 16 16 16 16 17 17 17 17 17 17 17 17 17 17 17 17 17 17 17 17 17 17 17 17 17 17 17 17 17 17 17 17 17 17 17 17 17 17 17 17 18 18 18 18 18 18 18 18 18 18 18 18 18 18 18 18 18 18 18 18 18 18 18 18 18 18 18 18 18 18 18 18 18 18 18 18 18 18 18 18 18 18 18 19 19 19 19 19 19 19 19 19 19 19 19 19 19 19 19 19 19 19 19 19 19 19 19 19 19 19 19 19 19 19 19 19 19 19 19 19 19 19 19 19 19 19 19 19 19 19 19 19 19 19 19 20 20 20 20 20 20 20 20 20 20 20 20 20 20 21 21 21 21 21 22 22 22 22 23 23 23 24 24 24 25 25 25 25 25 25 26 26 26 26 26 26 26 26 26 26 26 26 26 26 26 26 26 26 26 26 26 26 26 26 26 26 26 26 26 26 26 26 26 26 26 26 26 26 26 26 26 26 26 26 26 26 26 26 26 26 26 26 26 26 26 26 26 26 26 26 26 26 26 26 26 26 26 26 26 26 26 27 27 27 27 27 27 28 28 28 28 28 28 29 29 29 29 29 30 30 30 30 30 30 30 30 29 29 29 28 29 29 29 29 29 30 30 30 30 31 31 32 33 33 33 34 34 34 34 34 35 35 35 36 36 36 36 36 36 36 36 35 35 35 35 34 34 33 32 32 31 31 30 30 30 29 29 29 29 29 29 30 30 30 30 30 31 31 31 32 32 33 34 35 36 37 37 38 38 38 39 39 39 39 39 40 40 40 40 40 40 40 40 40 40 40 40 40 40 40 40 40 40 40 41 41 41 41 41 41 42 42 42 41 41 41 41 41 41 41 41 40 40 39 39 39 39 39 39 40 40 39 39 39 39 39 39 39 39 39 39 40 40 40 41 42 43 44 45 46 46 47 47 47 47 47 47 48 48 48 48 48 48 48 48 48 48 49 49 49 49 49 50 50 51 51 51 52 52 52 52 52 52 52 52 52 52 52 52 52 53 53 53 53 53 53 53 53 52 51 50 49 48 48 47 47 47 46 45 45 44 44 43 43 43 43 43 43 42 42 42 42 42 41 41 41 41 41 41 41 41 41 40 40 40 40 39 38 38 37 36 36 35 34 33 32 31 31 30 30 30 29 29 29 29 29 29 28 28 28 28 28 28 28 27 27 27 27 27 27 27 27 27 27 27 27 27 27 27 27 27 27 27 26 26 26 26 26 26 26 26 26 26 26 26 26 26 26 26 26 26 26 26 26 26 26 26 26 26 26 26 26 26 26 26 26 26 26 27 27 26 25 25 24 23 21 19 18 18 18 18 17 17 17 17 17 17 17 17 17 17 17 17 18 18 18 18 17 17 16 16 15 15 15 15 15 15 15 15 15 15 15 15 15 15 15 16 16 16 16 17 17 18 18 18 18 19 19 19 19 19 20 20 20 20 20 21 21 21 21 21 21 22 22 21 21 21 21 21 23 24 27 29 31 31 30 29 27 26 25 24 24 25 27 28 30 32 34 37 39 42 43 44 44 45 45 45 45 45 45 44 43 42 41 40 38 37 35 34 33 32 31 31 30 30 29 29 29 29 28 28 28 28 28 28 28 28 28 28 28 28 28 28 29 29 29 29 29 29 29 29 28 28 28 28 28 28 28 28 28 27 25 23 22 20 19 18 18 17 17 16 16 16 16 16 16 16 16 17 17 17 17 17 16 16 15 14 13 12 11 10 9 7 7 7 7 7 7 7 7 7 7 7 7 7 7 7 7 7 11 14 17 19 19 20 20 20 20 20 20 20 20 20 20 20 20 20 20 20 20 20 20 20 20 20 19 19 19 19 19 19 19 19 19 19 19 19 19 18 18 18 18 18 18 18 18 18 18 18 18 18 18 18 18 18 18 18 18 18 18 18 18 18 18 18 18 18 17 17 17 18 18 18 18 18 18 18 18 18 18 18 18 18 18 18 18 18 18 18 18 18 18 18 18 18 18 18 18 18 18 18 18 17 17 17 17 17 16 16 16 16 16 16 16 16 16 16 16 16 16 16 16 15 15 14 13 13 12 11 10 10 9 9 8 6 5 5 4 4 4 4 4 4 4 4 4 4 4 4 4 4 4 3 4 4 4 4 4 4 4 3 3 3 3 3 3 3 3 3 3 3 3 4 4 4 3 3 4 4.4082413
11 11 12 12 12 12 12 12 12 12 12 12 13 13 13 13 13 13 13 13 12 12 12 12 12 12 12 12 12 13 13 14 14 14 14 15 15 15 15 15 15 15 15 16 16 16 16 16 16 16 16 16 16 17 17 17 17 17 17 17 17 17 17 17 17 17 17 17 17 17 17 17 17 17 17 17 17 17 17 17 17 18 18 18 18 18 18 18 18 18 18 18 18 18 18 18 18 18 18 18 18 18 18 18 18 18 18 18 18 18 18 18 18 18 18 18 18 18 18 18 18 18 18 18 18 18 18 18 18 18 18 18 19 19 19 19 19 19 19 19 19 19 19 19 19 19 19 19 19 19 19 19 19 19 19 19 19 19 19 19 19 19 19 19 19 19 19 19 19 19 19 19 19 19 19 19 19 19 19 19 19 19 19 19 20 20 20 20 20 20 20 20 20 20 20 20 20 20 20 21 21 21 21 21 21 22 22 22 23 23 23 23 24 24 24 25 25 25 25 25 25 26 26 26 26 26 26 26 26 26 26 26 26 26 26 26 26 26 26 26 26 26 26 26 26 26 26 26 26 26 26 26 26 26 26 26 26 26 26 26 26 26 26 26 26 26 26 26 26 26 26 26 26 26 26 26 26 25 25 25 25 25 26 26 26 26 26 26 26 26 26 26 26 26 26 27 27 27 27 27 27 27 27 28 28 28 28 28 29 29 29 29 29 30 30 30 30 29 29 29 28 29 29 29 29 29 30 30 30 30 31 31 32 32 33 33 33 33 33 33 34 34 35 35 35 36 36 36 36 36 35 35 35 34 34 33 33 32 31 30 30 29 29 28 28 28 28 27 27 27 27 27 27 27 28 28 28 28 29 29 30 30 31 32 33 35 36 36 37 38 38 39 39 39 39 39 40 40 40 40 40 40 40 40 40 40 40 40 40 40 40 40 40 40 40 41 41 41 41 41 42 42 42 42 41 41 41 41 41 41 41 41 41 40 39 39 39 39 39 40 40 40 40 39 39 39 39 39 39 39 39 39 40 40 40 41 42 43 44 45 46 46 47 47 47 47 47 47 48 48 48 48 48 48 49 49 49 49 49 49 49 49 50 50 51 51 51 52 52 52 52 52 52 52 52 52 52 52 52 52 53 53 53 53 53 53 53 53 53 52 51 50 49 48 48 47 47 47 46 45 45 44 44 43 43 43 43 43 43 42 42 42 42 41 41 41 41 41 41 41 41 41 41 41 40 40 40 39 39 38 38 37 36 35 34 33 32 32 31 30 30 30 30 30 29 29 29 29 29 28 28 28 28 28 28 28 27 27 27 27 27 27 27 27 27 27 27 27 27 27 27 27 27 27 27 27 27 27 27 27 27 27 27 27 27 27 27 27 27 27 27 27 27 27 27 26 26 26 26 26 26 26 26 26 26 26 26 26 27 27 27 26 25 25 25 23 21 19 18 18 18 18 18 17 17 17 17 17 17 17 17 17 17 17 18 18 18 18 18 17 17 16 16 15 15 15 15 15 15 15 15 15 15 15 15 15 16 16 16 16 17 17 18 18 18 18 19 19 19 19 19 19 20 20 20 20 20 21 21 21 21 21 21 22 22 22 21 21 21 22 23 24 27 29 30 31 29 28 26 24 23 23 23 24 26 28 29 31 34 36 39 41 42 43 44 44 45 45 45 45 44 43 42 40 39 37 36 34 33 32 31 31 30 30 29 29 29 28 28 28 28 28 28 28 28 28 28 28 28 28 28 28 28 28 29 29 29 29 29 29 29 29 29 29 28 28 28 28 28 29 28 27 25 23 21 20 19 18 18 17 17 17 16 16 16 16 16 16 16 17 17 17 17 16 16 15 14 13 12 11 11 10 9 7 7 7 7 7 7 7 7 7 7 7 7 7 7 7 7 7 10 13 16 19 19 20 20 20 20 20 20 20 20 20 20 20 20 20 20 20 20 20 20 20 20 20 20 19 19 19 19 19 19 19 19 19 19 19 19 19 19 18 18 18 18 18 18 18 18 18 18 18 18 18 18 18 18 18 18 18 18 18 18 18 18 18 18 18 18 18 18 18 18 18 18 18 18 18 18 18 18 18 18 18 18 18 18 18 18 18 18 18 18 18 18 18 18 18 18 18 18 18 18 17 17 17 17 17 17 16 16 16 16 16 16 16 16 16 16 16 16 16 16 15 15 14 14 13 12 11 11 10 10 9 8 7 6 5 4 4 4 4 4 4 4 4 4 4 4 4 4 4 3 3 3 3 4 4 4 4 3 3 3 3 3 3 3 3 3 3 3 3 3 4 3 3 3 3 4 4.372367
11 12 12 12 12 12 12 12 12 12 13 13 13 13 13 13 13 13 13 13 12 12 12 12 12 12 12 12 13 13 13 14 14 14 14 15 15 15 15 15 15 15 16 16 16 16 16 16 16 16 16 16 17 17 17 17 17 17 17 17 17 17 17 17 17 17 17 17 17 17 17 17 17 17 17 18 18 18 18 18 18 18 18 18 18 18 18 18 18 18 18 18 18 18 18 18 18 18 18 18 18 18 18 18 18 18 18 18 18 18 18 18 18 18 18 18 18 18 18 18 18 19 19 19 19 19 19 19 19 19 19 19 19 19 19 19 19 19 19 19 19 19 19 19 19 19 19 19 19 19 19 19 19 19 19 19 19 19 19 19 19 19 19 19 19 19 19 19 19 19 19 19 19 19 20 20 20 20 20 20 20 20 20 20 20 20 20 20 20 20 20 20 20 20 20 20 20 20 21 21 21 21 21 21 21 22 22 22 23 23 23 23 24 24 24 25 25 25 25 25 25 25 26 26 26 26 26 26 26 26 26 26 26 26 26 26 26 26 26 26 26 26 26 26 26 26 26 26 26 26 26 26 26 26 26 26 26 26 26 26 26 26 26 26 26 26 26 26 26 26 26 26 26 26 26 25 25 25 25 25 25 25 25 26 26 26 26 26 26 26 26 26 26 26 26 26 27 27 27 27 27 27 27 27 27 28 28 28 28 28 28 29 29 29 29 29 29 29 29 29 28 29 29 29 29 29 30 30 30 30 31 31 31 32 32 32 32 32 32 32 32 33 33 34 34 35 35 35 35 35 35 34 34 34 33 33 32 31 31 30 29 29 29 28 28 28 28 27 27 27 27 27 27 27 27 27 28 28 28 28 29 29 30 31 32 33 35 36 37 37 38 38 39 39 39 39 39 40 40 40 40 40 40 40 40 40 40 40 40 40 40 40 40 40 40 40 41 41 41 41 42 42 42 42 41 41 41 41 41 41 41 41 41 40 39 39 39 39 40 40 40 40 40 39 39 39 39 39 39 39 39 40 40 40 40 41 42 43 44 45 46 46 47 47 47 47 47 48 48 48 48 48 49 49 49 49 49 49 49 49 50 50 50 51 51 51 52 52 52 53 53 53 53 53 53 52 52 52 52 52 53 53 53 54 54 54 54 54 53 52 51 50 49 48 48 48 47 47 46 46 45 44 44 44 43 43 43 43 42 42 42 42 41 41 41 41 41 41 41 41 41 41 41 41 40 40 40 40 39 39 38 38 37 36 35 34 33 32 32 31 31 30 30 30 30 29 29 29 29 29 28 28 28 28 28 28 28 27 27 27 27 27 27 27 27 27 27 27 27 27 27 27 27 27 27 27 27 27 27 27 27 27 27 27 27 27 27 27 27 27 27 27 27 27 27 27 27 27 27 27 27 27 27 26 26 26 26 27 27 27 27 26 26 25 25 23 21 19 18 18 18 18 18 17 17 17 17 17 17 17 17 17 17 17 18 18 19 19 18 18 17 17 16 16 16 16 16 16 16 16 16 16 16 16 16 16 16 17 17 17 17 18 18 18 19 19 19 19 19 19 19 20 20 20 20 20 20 20 21 21 21 21 21 21 22 22 22 22 21 22 23 24 27 28 30 30 28 27 25 24 23 23 23 24 26 27 29 31 33 36 38 41 42 43 43 44 44 44 44 43 42 41 39 38 36 35 34 32 31 31 30 30 30 29 29 29 28 28 28 28 28 28 28 28 28 28 28 28 28 28 28 28 28 28 29 29 29 29 30 30 30 29 29 29 28 28 28 28 29 29 28 27 25 22 21 19 19 18 18 18 17 17 16 16 16 16 16 16 16 17 17 17 16 16 15 15 14 13 12 11 11 10 9 7 7 7 7 7 7 7 7 7 7 7 7 7 7 7 7 7 10 13 16 19 19 20 20 20 20 21 20 20 20 20 20 20 20 20 20 20 20 20 20 20 20 20 20 20 19 19 19 19 19 19 19 19 19 19 19 19 19 19 18 18 18 18 18 18 18 18 18 18 18 18 18 18 18 18 18 18 18 18 18 18 18 18 18 18 18 18 18 18 18 18 18 18 18 18 18 18 18 18 18 18 18 18 18 18 18 18 18 18 18 18 18 18 18 18 18 18 18 18 18 18 17 17 17 17 17 16 16 16 16 16 16 16 16 16 16 16 16 16 16 15 15 14 14 13 12 12 11 11 10 10 9 7 6 5 4 4 4 4 4 4 4 4 4 4 4 4 4 4 3 3 3 3 3 4 4 3 3 3 3 3 3 3 3 3 3 3 3 3 3 3 3 3 3 3 4 4.3332644
12 12 12 12 12 12 12 12 12 13 13 13 13 13 13 13 13 13 13 13 12 12 12 12 12 12 12 12 13 13 13 14 14 14 15 15 15 15 15 15 15 16 16 16 16 16 16 16 16 16 16 17 17 17 17 17 17 17 17 17 17 17 17 17 17 17 17 18 18 18 18 18 18 18 18 18 18 18 18 18 18 18 18 18 18 18 18 18 18 18 18 18 18 18 18 18 18 18 18 18 18 18 18 18 18 18 18 18 18 18 18 18 18 18 18 18 18 18 19 19 19 19 19 19 19 19 19 19 19 19 19 19 19 19 19 19 19 19 19 19 19 19 19 19 19 19 19 19 19 19 19 19 19 19 19 19 19 19 19 19 19 19 19 19 19 19 19 19 19 19 19 19 20 20 20 20 20 20 20 20 20 20 20 20 20 20 20 20 20 20 20 20 20 20 20 20 21 21 21 21 21 21 21 21 22 22 22 22 23 23 23 23 24 24 24 25 25 25 25 25 25 25 26 26 26 26 26 26 26 26 26 26 26 26 26 26 26 26 26 26 26 26 26 26 26 26 26 26 26 26 26 26 26 26 26 26 26 26 26 26 26 26 26 26 26 26 26 26 26 26 26 26 26 25 25 25 25 25 25 25 25 25 25 25 26 26 26 26 26 26 26 26 26 26 26 26 26 26 27 27 27 27 27 27 27 27 27 27 27 28 28 28 28 29 29 29 29 29 29 29 28 29 29 29 29 29 30 30 30 30 31 31 31 31 31 31 31 31 31 31 31 32 32 33 33 34 35 35 35 35 34 34 33 33 33 32 31 31 30 30 29 29 28 28 28 28 28 27 27 27 27 27 27 27 27 27 27 27 27 27 27 28 29 30 31 32 34 35 36 37 38 38 39 39 39 39 39 40 40 40 40 40 40 40 40 40 39 40 40 40 40 40 40 40 40 40 40 41 41 41 42 42 42 42 41 41 41 41 41 41 41 41 41 40 39 39 39 39 40 40 40 40 40 39 39 39 39 39 39 39 39 40 40 40 40 41 42 43 44 45 45 46 47 47 47 47 47 48 48 48 49 49 49 49 49 49 49 49 50 50 50 50 51 51 51 52 52 52 53 53 53 53 53 53 53 53 52 52 52 53 53 53 54 54 54 54 54 54 53 53 52 51 49 49 48 48 47 47 46 46 45 45 44 44 43 43 43 42 42 42 42 41 41 41 41 41 41 41 41 41 41 41 41 41 40 40 40 40 39 39 38 38 37 37 36 35 34 33 32 32 31 31 30 30 30 29 29 29 29 29 28 28 28 28 28 28 28 28 28 27 27 27 27 27 27 27 27 27 27 27 27 27 27 27 27 27 27 27 27 27 27 27 27 27 27 27 27 27 27 27 27 27 27 27 27 27 27 27 27 27 27 27 27 27 27 27 27 27 27 27 27 27 26 25 25 23 21 19 18 18 18 18 18 17 17 17 17 17 17 17 17 17 17 17 18 18 19 19 19 19 18 18 17 17 17 16 16 16 16 16 16 16 16 16 17 17 17 17 18 18 18 18 19 19 19 19 19 19 19 19 20 20 20 20 20 20 20 20 21 21 21 21 21 21 22 22 22 22 22 22 23 24 26 28 29 29 28 26 24 23 22 22 23 24 25 27 29 31 33 35 38 40 41 42 42 43 43 43 42 41 40 38 37 35 34 32 31 30 30 29 29 29 29 29 28 28 28 28 28 28 28 28 28 28 28 28 28 28 28 28 28 28 28 29 29 29 29 30 30 30 30 30 29 29 29 28 28 28 29 29 28 26 24 22 20 19 19 18 18 18 17 17 17 16 16 16 16 16 16 16 16 16 16 16 15 14 13 12 11 11 11 10 9 7 7 7 7 7 7 7 7 7 7 7 7 7 7 7 7 7 10 13 16 18 19 20 20 20 21 21 21 21 20 20 20 20 20 20 20 20 20 20 20 20 20 20 20 20 19 19 19 19 19 19 19 19 19 19 19 19 19 19 19 19 18 18 18 18 18 18 18 18 18 18 18 18 18 18 18 18 18 18 18 18 18 18 18 18 18 18 18 18 18 18 18 18 18 18 18 18 18 18 18 18 18 18 18 18 18 18 18 18 18 18 18 18 18 18 18 18 18 18 18 18 17 17 17 17 17 17 16 16 16 16 16 16 16 16 16 16 16 16 16 16 15 15 14 13 13 12 12 11 11 10 9 8 6 5 5 4 4 4 4 4 4 4 4 4 4 4 4 3 3 3 3 3 3 4 3 3 3 3 3 3 3 3 3 3 3 3 3 3 3 3 3 3 3 3 4 4.294161
12 12 12 12 12 12 12 12 13 13 13 13 13 13 13 13 13 13 13 13 13 12 12 12 12 12 12 12 13 13 13 14 14 14 15 15 15 15 15 15 16 16 16 16 16 16 16 16 16 16 17 17 17 17 17 17 17 17 17 17 17 17 18 18 18 18 18 18 18 18 18 18 18 18 18 18 18 18 18 18 18 18 18 18 18 18 18 18 18 18 18 18 18 18 18 18 18 18 18 18 18 18 18 18 19 19 19 19 19 19 19 19 19 19 19 19 19 19 19 19 19 19 19 19 19 19 19 19 19 19 19 19 19 19 19 19 19 19 19 19 19 19 19 19 19 19 19 19 19 19 19 19 19 19 19 19 19 19 19 19 19 19 19 19 19 19 19 19 19 20 20 20 20 20 20 20 20 20 20 20 20 20 20 20 20 20 20 20 20 20 20 20 20 20 20 21 21 21 21 21 21 21 21 22 22 22 22 22 23 23 23 23 24 24 24 25 25 25 25 25 25 26 26 26 26 26 26 26 26 26 26 26 26 26 26 26 26 26 26 26 26 26 26 26 26 26 26 26 26 26 26 26 26 26 26 26 26 26 26 26 26 26 26 26 26 26 26 26 26 26 26 26 26 25 25 25 25 25 25 25 25 25 25 26 26 26 26 26 26 26 26 26 26 26 26 26 26 26 27 27 27 27 27 27 27 27 27 27 27 27 27 28 28 28 28 28 28 28 28 28 28 28 28 28 29 29 29 29 30 30 30 30 30 30 30 30 30 30 30 30 30 31 31 32 32 33 34 34 34 34 34 34 33 33 32 32 31 31 30 29 29 29 28 28 28 28 28 27 27 27 27 27 27 27 27 27 27 27 27 27 27 27 28 29 30 31 33 34 35 36 37 38 38 39 39 39 40 40 40 40 40 40 40 40 40 40 39 39 40 40 40 40 40 40 40 40 40 41 41 41 41 42 42 42 41 41 41 41 41 41 41 41 41 40 39 39 38 39 40 40 40 40 40 40 39 39 39 39 39 39 39 40 40 40 40 41 42 42 43 44 45 46 46 47 47 47 47 48 48 48 49 49 49 49 49 49 50 50 50 50 50 51 51 51 52 52 53 53 53 53 53 53 53 53 53 53 53 53 53 53 53 54 54 54 54 54 54 54 54 53 52 51 50 49 48 48 47 47 46 46 45 45 44 43 43 43 42 42 42 42 41 41 41 41 41 41 41 41 41 41 40 40 40 40 40 40 40 40 39 39 38 38 37 37 36 35 35 34 33 32 32 31 31 30 30 30 30 29 29 29 29 28 28 28 28 28 28 28 28 28 28 27 27 27 27 27 27 27 27 27 27 27 28 28 28 28 28 28 28 28 28 27 27 27 27 27 27 27 27 27 27 27 27 27 27 27 27 27 27 27 27 27 27 27 27 27 27 27 27 27 27 27 26 25 25 23 21 19 18 18 18 18 18 18 17 17 17 17 17 17 17 17 17 17 18 19 19 20 20 20 19 19 18 18 18 17 17 17 17 17 17 17 17 17 18 18 18 18 19 19 19 19 19 19 19 19 19 20 20 20 20 20 20 20 20 20 20 20 21 21 21 21 21 21 22 22 22 22 22 22 23 24 25 27 28 28 27 26 24 23 23 22 23 24 25 27 29 31 33 35 37 39 40 41 41 42 42 41 40 39 38 36 35 33 32 31 30 30 29 29 29 29 29 28 28 28 28 28 28 28 28 28 28 28 28 28 28 28 28 28 28 28 29 29 29 29 30 30 30 30 29 29 29 28 28 28 28 28 28 28 27 26 24 22 20 19 19 19 18 18 17 17 17 16 16 16 16 16 16 16 16 16 16 15 15 14 13 12 11 11 11 10 9 7 7 7 7 7 7 7 7 7 7 7 7 7 7 7 7 7 10 12 15 18 19 20 20 21 21 21 21 21 21 20 20 20 20 20 20 20 20 20 20 20 20 20 20 20 20 19 19 19 19 19 19 19 19 19 19 19 19 19 19 19 19 19 18 18 18 18 18 18 18 18 18 18 18 18 18 18 18 18 18 18 18 18 18 18 18 18 18 18 18 18 18 18 18 18 18 18 18 18 18 18 18 18 18 18 18 18 18 18 18 18 18 18 18 18 18 18 18 18 18 18 17 17 17 17 17 17 17 16 16 16 16 16 16 16 16 16 16 16 16 16 15 15 14 14 13 12 12 11 11 11 10 9 7 5 5 4 4 4 4 4 4 4 4 4 4 4 4 3 3 3 3 3 3 3 3 3 3 3 3 3 3 3 3 3 3 3 3 3 3 3 3 3 3 3 4 4.257867
12 12 12 12 12 12 12 13 13 13 13 13 13 13 13 13 13 13 13 13 13 12 12 12 12 12 12 13 13 13 13 14 14 14 15 15 15 15 15 16 16 16 16 16 16 16 16 16 16 17 17 17 17 17 17 17 17 17 17 18 18 18 18 18 18 18 18 18 18 18 18 18 18 18 18 18 18 18 18 18 18 18 18 18 18 18 18 18 18 18 18 18 18 18 18 18 18 18 18 18 19 19 19 19 19 19 19 19 19 19 19 19 19 19 19 19 19 19 19 19 19 19 19 19 19 19 19 19 19 19 19 19 19 19 19 19 19 19 19 19 19 19 19 19 19 19 19 19 19 19 19 19 19 19 19 19 19 19 19 19 19 19 19 19 19 19 20 20 20 20 20 20 20 20 20 20 20 20 20 20 20 20 20 20 20 20 20 20 20 20 20 20 21 21 21 21 21 21 21 21 21 21 21 22 22 22 22 23 23 23 23 24 24 24 24 25 25 25 25 25 25 26 26 26 26 26 26 26 26 26 26 26 26 26 26 26 26 26 26 26 26 26 26 26 26 26 26 26 26 26 26 26 26 26 26 26 26 26 26 26 26 26 26 26 26 26 26 26 26 26 26 26 25 25 25 25 25 25 25 25 25 25 26 26 26 26 26 26 26 26 26 26 26 26 26 26 26 26 27 27 27 27 27 27 27 27 27 27 27 27 27 27 27 28 28 28 28 28 28 28 28 28 28 28 28 28 29 29 29 29 29 29 29 29 29 29 29 29 29 29 29 30 30 30 31 32 33 33 34 34 34 33 33 33 32 32 31 31 30 29 29 28 28 28 28 28 27 27 27 27 27 27 27 27 27 27 27 26 26 26 27 27 27 28 29 30 32 33 34 35 36 37 38 39 39 40 40 40 40 40 40 40 40 40 40 40 39 39 39 39 39 39 39 40 40 40 40 40 41 41 41 41 42 42 41 41 41 41 41 42 42 41 41 40 39 39 38 39 40 40 40 40 40 40 39 39 39 39 39 39 39 40 40 40 40 41 41 42 43 43 44 45 46 46 47 47 47 48 48 48 49 49 49 49 50 50 50 50 50 51 51 51 51 52 52 53 53 53 53 54 54 54 54 53 53 53 53 53 53 53 53 54 54 54 55 55 55 54 54 53 52 51 50 49 48 48 47 47 46 46 45 45 44 43 43 43 42 42 42 41 41 41 41 41 41 41 41 40 40 40 40 40 40 40 40 40 40 39 39 39 38 38 37 37 36 36 35 34 33 33 32 32 31 31 31 30 30 30 29 29 29 28 28 28 28 28 28 28 28 28 28 28 28 28 28 28 28 28 28 28 28 28 28 28 28 28 28 28 28 28 28 28 28 28 28 28 28 28 28 28 27 27 27 27 27 27 27 27 27 27 27 27 27 27 27 27 27 27 27 27 27 27 26 25 25 23 21 19 18 18 18 18 18 18 17 17 17 17 17 17 17 17 17 17 18 19 20 20 20 20 20 20 20 19 19 19 18 18 18 18 18 18 18 18 19 19 19 19 19 19 19 19 20 20 20 20 20 20 20 20 20 20 20 20 20 20 20 20 20 21 21 21 21 22 22 22 22 22 22 22 23 24 25 26 27 28 27 26 24 23 23 23 23 24 25 27 29 31 33 35 37 39 39 40 40 40 40 39 38 37 35 34 33 31 30 30 29 29 29 29 29 28 28 28 28 28 28 28 28 28 28 28 28 28 28 28 28 28 28 28 29 29 29 29 29 30 30 30 30 30 29 29 28 28 28 27 28 28 28 28 27 26 23 22 20 19 19 19 18 18 18 17 17 17 16 16 16 16 16 16 16 16 15 15 14 14 13 12 11 11 11 10 9 7 7 7 7 7 7 7 7 7 7 7 7 7 7 7 7 7 9 12 15 18 19 20 20 21 21 21 21 21 21 20 21 21 20 20 20 20 20 20 20 20 20 20 20 20 20 19 19 19 19 19 19 19 19 19 19 19 19 19 19 19 19 19 18 18 18 18 18 18 18 18 18 18 18 18 18 18 18 18 18 18 18 18 18 18 18 18 18 18 18 18 18 18 18 18 18 18 18 18 18 18 18 18 18 18 18 18 18 18 18 18 18 18 18 18 18 18 18 18 18 18 18 17 17 17 17 17 17 17 17 16 16 16 16 16 16 16 16 16 16 16 15 15 14 14 13 13 12 12 12 11 10 9 7 6 5 4 4 4 4 4 4 4 4 4 4 4 4 3 3 3 3 3 3 3 3 3 3 3 3 3 3 3 3 3 3 3 3 3 3 3 3 3 3 3 4 4.2215724
12 12 12 12 12 12 12 13 13 13 13 13 13 13 13 13 13 13 13 13 13 12 12 12 12 12 12 13 13 13 14 14 14 14 14 15 15 15 15 16 16 16 16 16 16 16 16 16 17 17 17 17 17 17 17 17 17 17 18 18 18 18 18 18 18 18 18 18 18 18 18 18 18 18 18 18 18 18 18 18 18 18 18 18 18 18 18 18 18 18 18 18 18 18 18 19 19 19 19 19 19 19 19 19 19 19 19 19 19 19 19 19 19 19 19 19 19 19 19 19 19 19 19 19 19 19 19 19 19 19 19 19 19 19 19 19 19 19 19 19 19 19 19 19 19 19 19 19 19 19 19 19 19 19 19 20 20 20 20 20 20 20 20 20 20 20 20 20 20 20 20 20 20 20 20 20 20 20 20 20 20 20 20 20 20 20 20 20 21 21 21 21 21 21 21 21 21 21 21 21 21 21 22 22 22 22 22 23 23 23 23 24 24 24 24 25 25 25 25 25 26 26 26 26 26 26 26 26 26 26 26 26 27 27 27 26 26 26 26 26 26 26 26 26 26 26 26 26 26 26 26 26 26 26 26 26 26 26 26 26 26 26 26 26 26 26 26 26 26 26 26 26 26 25 25 25 25 25 25 25 25 26 26 26 26 26 26 26 26 26 26 26 26 26 26 26 26 26 27 27 27 27 27 27 27 27 27 27 27 27 27 27 27 27 27 28 27 27 27 27 27 27 28 28 28 28 28 28 28 28 28 28 28 28 28 28 28 28 28 29 29 29 29 30 30 31 32 33 33 33 33 33 33 33 32 32 31 30 30 29 29 28 28 28 28 27 27 27 27 27 27 27 27 27 27 27 26 26 26 26 26 26 26 27 28 29 30 32 33 34 35 36 37 38 39 39 40 40 40 40 40 40 40 40 40 40 39 39 39 39 39 39 39 39 39 40 40 40 40 41 41 41 41 41 41 41 41 41 41 42 42 42 41 40 39 38 38 38 39 40 40 40 40 40 39 39 39 39 39 39 39 40 40 40 40 40 41 41 42 43 44 44 45 46 46 47 47 48 48 48 49 49 49 49 50 50 50 50 51 51 51 51 52 52 53 53 53 54 54 54 54 54 54 54 53 53 53 53 53 53 54 54 54 55 55 55 55 55 54 54 53 51 50 49 48 48 47 47 46 46 45 44 44 43 43 42 42 42 41 41 41 41 40 40 40 40 40 40 40 40 40 40 40 40 40 39 39 39 38 38 37 37 37 36 36 35 35 34 33 33 32 32 32 31 31 31 30 30 30 29 29 29 28 28 28 28 28 28 28 28 28 28 28 28 28 28 28 28 28 28 28 28 28 28 28 28 28 28 28 28 28 28 28 28 28 28 28 28 28 28 28 28 28 27 27 27 27 27 27 27 27 27 27 27 27 27 27 27 27 27 27 27 26 25 25 23 21 19 18 18 18 18 18 18 18 18 17 17 17 17 17 17 17 17 18 19 20 21 21 21 21 21 21 20 20 20 20 19 19 19 19 19 19 20 20 20 20 20 20 20 20 20 20 20 20 20 20 20 20 20 20 20 20 20 20 20 20 20 21 21 21 21 21 22 22 22 22 22 22 23 23 23 25 26 27 27 26 26 24 23 23 23 23 24 25 27 29 30 32 34 36 38 38 39 39 39 38 37 36 35 34 33 31 31 30 29 29 29 29 29 28 28 28 28 28 28 28 28 28 28 28 28 28 28 28 29 29 29 29 29 29 29 29 29 29 30 30 30 30 29 29 28 28 28 27 27 27 27 27 27 26 25 23 22 21 20 19 19 18 18 18 17 17 17 17 16 16 16 16 16 16 16 15 15 15 14 13 12 12 11 11 10 9 7 7 7 7 7 7 7 7 7 7 7 7 7 7 7 7 7 9 12 15 17 18 19 20 21 21 21 21 21 21 21 21 21 20 20 20 20 20 20 20 20 20 20 20 20 20 20 19 19 19 19 19 19 19 19 19 19 19 19 19 19 19 19 19 18 18 18 18 18 18 18 18 18 18 18 18 18 18 18 18 18 18 18 18 18 18 18 18 18 18 18 18 18 18 18 18 18 18 18 18 18 18 18 18 18 18 18 18 18 18 18 18 18 18 18 18 18 18 18 18 18 18 17 17 17 17 17 17 17 17 17 16 16 16 16 16 16 16 16 16 16 15 15 15 14 14 13 13 12 12 12 11 10 8 6 5 4 4 4 4 4 4 4 4 4 4 4 4 3 3 3 3 3 3 3 3 3 3 3 3 3 3 3 3 3 3 3 3 3 3 3 3 3 3 3 3 4.1934175
12 12 12 12 12 12 13 13 13 13 13 13 13 13 13 13 13 13 13 13 13 13 12 12 12 12 12 13 13 13 14 14 14 14 14 15 15 15 15 16 16 16 16 16 16 16 16 17 17 17 17 17 17 17 17 17 18 18 18 18 18 18 18 18 18 18 18 18 18 18 18 18 18 18 18 18 18 18 18 18 18 18 18 19 19 19 19 19 18 19 19 19 19 19 19 19 19 19 19 19 19 19 19 19 19 19 19 19 19 19 19 19 19 19 19 19 19 19 19 19 19 19 19 19 19 19 19 19 19 19 19 19 19 19 19 19 19 19 19 20 20 20 20 20 20 20 20 20 20 20 20 20 20 20 20 20 20 20 20 20 20 20 20 20 20 20 20 20 20 20 20 20 20 20 20 20 20 20 20 20 20 20 20 20 20 20 21 21 21 21 21 21 21 21 21 21 21 21 21 21 21 22 22 22 22 22 23 23 23 23 23 24 24 24 24 25 25 25 25 25 26 26 26 26 26 26 26 26 26 26 27 27 27 27 27 27 27 27 26 26 26 26 26 26 26 26 26 26 26 26 26 26 26 26 26 26 26 26 26 26 26 26 26 26 26 26 26 26 26 26 26 26 26 25 25 25 25 25 25 25 26 26 26 26 26 26 26 26 26 26 26 26 26 26 26 26 26 26 26 27 27 27 27 27 27 27 27 27 27 27 27 27 27 27 27 27 27 27 27 27 27 27 27 27 27 27 27 27 27 27 27 28 28 28 28 28 28 28 28 28 28 29 29 29 30 30 31 32 33 33 33 33 33 32 32 31 31 30 30 29 28 28 28 28 27 27 27 27 27 27 27 27 27 27 27 26 26 26 26 26 26 26 26 26 27 28 29 31 32 33 34 35 37 38 39 39 40 40 40 40 40 40 40 40 40 40 39 39 39 39 39 39 39 39 39 39 40 40 40 41 41 41 41 41 41 41 41 41 42 42 42 42 41 40 39 38 38 38 39 40 41 41 40 40 39 39 39 39 39 39 39 40 40 40 40 40 40 41 41 42 43 44 45 45 46 46 47 47 48 48 48 49 49 49 50 50 50 51 51 51 51 52 52 53 53 53 54 54 54 54 54 54 54 54 54 53 53 53 53 53 54 54 54 55 55 55 55 55 55 54 53 52 50 49 48 47 47 46 46 45 45 44 44 43 43 42 42 41 41 41 41 40 40 40 40 40 40 40 40 40 40 40 40 39 39 39 38 38 37 37 36 36 36 35 35 34 34 34 33 33 33 32 32 32 31 31 31 30 30 30 29 29 29 28 28 28 28 28 28 28 28 28 28 28 28 28 28 28 28 28 28 28 28 28 28 28 28 28 28 28 28 28 28 28 28 28 28 28 28 28 28 28 28 28 28 27 27 27 27 27 27 27 27 27 27 27 27 27 27 27 27 27 26 25 25 23 21 19 18 18 18 18 18 18 18 18 18 17 17 17 17 17 17 18 19 19 21 21 21 22 21 21 21 21 21 21 21 21 20 20 20 20 20 21 21 21 21 21 21 21 20 20 20 20 20 20 20 21 21 21 21 21 21 21 21 21 21 21 21 21 21 21 21 22 22 22 22 23 23 23 23 23 24 25 26 27 26 26 24 23 23 23 23 24 25 27 28 30 32 34 35 37 37 37 37 37 36 36 34 33 32 31 30 30 29 29 29 29 28 28 28 28 28 28 28 28 28 28 28 28 28 28 29 29 29 29 29 29 29 29 29 29 29 29 29 29 30 30 29 29 28 28 28 27 27 26 26 27 27 27 26 25 23 22 21 20 19 19 19 18 18 17 17 17 17 16 16 16 16 16 16 16 15 15 15 14 13 12 12 12 11 11 9 7 7 7 7 7 7 7 7 7 7 7 7 7 7 7 7 7 9 12 15 17 18 19 20 21 21 21 21 21 21 21 21 21 21 20 20 20 20 20 20 20 20 20 20 20 20 20 20 19 19 19 19 19 19 19 19 19 19 19 19 19 19 19 19 18 18 18 18 18 18 18 18 18 18 18 18 18 18 18 18 18 18 18 18 18 18 18 18 18 18 18 18 18 18 18 18 18 18 18 18 18 18 18 18 18 18 18 18 18 18 18 18 18 18 18 18 18 18 18 18 18 18 18 17 17 17 17 17 17 17 17 17 17 16 16 16 16 16 16 16 16 16 15 15 14 14 13 13 13 12 12 11 10 9 7 5 4 4 4 4 4 4 4 4 4 4 4 3 3 3 3 3 3 3 3 3 3 3 3 3 3 3 3 3 3 3 3 3 3 3 3 3 3 3 3 3 4.165262
12 12 12 12 12 13 13 13 13 13 13 13 13 13 13 13 14 13 13 13 13 13 13 12 12 12 13 13 13 13 14 14 14 14 14 15 15 15 15 16 16 16 16 16 16 16 17 17 17 17 17 17 17 17 17 18 18 18 18 18 18 18 18 18 18 18 18 18 18 18 18 18 18 18 18 18 19 19 19 19 19 19 19 19 19 19 19 19 19 19 19 19 19 19 19 19 19 19 19 19 19 19 19 19 19 19 19 19 19 19 19 19 19 19 19 19 19 19 19 19 19 19 19 19 19 19 19 19 19 19 19 19 19 19 19 19 19 20 20 20 20 20 20 20 20 20 20 20 20 20 20 20 20 20 20 20 20 20 20 20 20 20 20 20 20 20 20 20 20 20 20 20 20 20 20 20 20 20 20 20 20 20 20 21 21 21 21 21 21 21 21 21 21 21 21 21 21 21 21 22 22 22 22 22 22 22 23 23 23 23 23 24 24 24 24 25 25 25 25 25 26 26 26 26 26 26 26 26 27 27 27 27 27 27 27 27 27 27 27 26 26 26 26 26 26 26 26 26 26 26 26 26 26 26 26 26 26 26 26 26 26 26 26 26 26 26 26 26 26 26 26 26 26 26 26 26 26 26 26 26 26 26 26 26 26 26 26 26 26 26 26 26 26 26 26 26 26 26 26 27 27 27 27 27 27 27 27 27 27 27 27 27 27 27 27 27 27 27 27 27 27 27 27 27 27 27 27 27 27 27 27 27 27 27 27 27 27 27 28 28 28 28 29 29 29 30 30 31 32 32 32 32 32 32 32 31 31 30 29 29 28 28 28 28 27 27 27 27 27 27 27 27 27 27 27 26 26 26 26 26 26 26 26 26 26 27 28 29 31 33 34 35 36 37 38 39 39 39 40 40 40 40 40 40 40 40 39 39 39 39 39 39 39 39 39 39 39 39 40 40 41 41 41 41 41 41 41 42 42 42 42 42 42 40 39 38 37 38 39 40 40 40 40 39 39 39 39 39 39 39 39 39 39 40 40 40 40 40 41 41 42 43 44 45 46 46 47 47 48 48 48 49 49 49 50 50 50 51 51 51 52 52 52 53 53 54 54 54 54 54 55 54 54 54 54 54 53 53 53 53 54 54 54 55 55 55 55 55 55 54 53 52 50 49 48 47 46 46 45 45 44 44 43 43 42 42 42 41 41 41 40 40 40 40 40 40 40 40 40 40 40 39 39 39 38 38 37 37 36 35 35 35 35 34 34 34 33 33 33 33 32 32 32 32 31 31 31 30 30 30 29 29 29 28 28 28 28 28 28 28 28 28 28 28 28 28 28 28 28 28 28 28 28 28 28 29 29 29 29 29 29 28 28 28 28 28 28 28 28 28 28 28 28 28 28 28 28 27 27 27 27 27 27 27 27 27 27 27 27 27 27 27 26 26 25 24 21 19 18 18 18 18 18 18 18 18 18 18 18 18 17 17 17 18 19 20 21 22 22 22 22 22 22 21 21 21 21 21 21 21 21 21 21 21 21 21 21 21 21 21 21 21 21 21 21 21 21 21 21 21 21 21 21 21 21 21 21 21 21 21 21 21 21 22 22 22 22 23 23 23 23 23 24 25 26 27 26 26 25 24 23 23 24 24 25 26 28 30 31 33 34 35 35 36 36 35 35 34 33 32 31 31 30 29 29 29 29 29 28 28 28 28 28 28 28 28 28 28 28 28 29 29 29 29 29 29 29 29 29 29 29 29 29 29 29 29 29 29 29 29 28 27 27 27 26 26 26 26 26 26 26 25 23 22 21 20 20 19 19 18 18 18 18 17 17 17 17 17 17 17 17 17 16 16 16 15 14 13 13 12 12 11 9 8 7 7 7 7 7 7 7 7 7 7 7 7 7 7 7 7 9 12 15 17 18 19 20 21 21 21 21 21 21 21 21 21 21 21 20 20 20 20 20 20 20 20 20 20 20 20 20 20 19 19 19 19 19 19 19 19 19 19 19 19 19 19 19 19 18 18 18 18 18 18 18 18 18 18 18 18 18 18 18 18 18 18 18 18 18 18 18 18 18 18 18 18 18 18 18 18 18 18 18 18 18 18 18 18 18 18 18 18 18 18 18 18 18 18 18 18 18 18 18 18 18 18 17 17 17 17 17 17 17 17 17 17 16 16 16 16 16 16 16 16 16 15 15 15 14 14 13 13 13 12 12 11 9 7 6 4 4 4 4 4 4 4 4 4 4 4 3 3 3 3 3 3 3 3 3 3 3 3 3 3 3 3 3 3 3 3 3 3 3 3 3 3 3 3 3 4.130488
12 12 12 12 12 13 13 13 13 13 13 13 14 14 14 14 14 13 13 13 13 13 13 13 12 13 13 13 13 13 14 14 14 14 14 15 15 15 15 16 16 16 16 16 16 17 17 17 17 17 17 17 17 18 18 18 18 18 18 18 18 18 18 18 18 18 18 18 18 18 18 18 18 18 19 19 19 19 19 19 19 19 19 19 19 19 19 19 19 19 19 19 19 19 19 19 19 19 19 19 19 19 19 19 19 19 19 19 19 19 19 19 19 19 19 19 19 19 19 19 19 19 19 19 19 19 19 19 19 19 19 19 19 19 19 19 20 20 20 20 20 20 20 20 20 20 20 20 20 20 20 20 20 20 20 20 20 20 20 20 20 20 20 20 20 20 20 20 20 20 20 20 20 20 21 21 21 21 21 21 21 21 21 21 21 21 21 21 21 21 21 21 21 21 21 21 21 22 22 22 22 22 22 22 22 23 23 23 23 23 23 24 24 24 24 25 25 25 25 25 26 26 26 26 26 26 26 27 27 27 27 27 27 27 27 27 27 27 27 27 26 26 26 26 26 26 26 26 26 26 26 26 26 26 26 26 26 26 26 26 26 26 26 26 26 26 26 26 26 26 26 26 26 26 26 26 26 26 26 26 26 26 26 26 26 26 26 26 26 26 26 26 26 26 26 26 26 26 26 26 27 27 27 27 27 27 27 27 27 27 27 27 27 27 27 27 27 27 27 27 27 27 27 27 27 27 27 27 27 27 27 27 27 27 27 27 27 27 27 27 27 28 28 28 29 29 29 30 31 31 32 32 32 32 31 31 30 30 29 29 28 28 28 28 27 27 27 27 27 27 27 27 27 27 27 26 26 26 26 26 26 26 26 26 26 26 27 28 30 32 33 34 35 36 38 38 39 39 39 40 40 40 40 40 40 40 39 39 39 39 39 39 38 38 38 39 39 39 40 40 41 41 41 41 41 41 42 42 42 42 42 42 42 40 38 37 37 38 39 40 40 40 40 39 39 39 39 39 39 39 39 39 39 39 39 39 40 40 40 41 41 42 43 44 45 46 46 47 47 48 48 48 49 49 50 50 51 51 51 52 52 52 53 53 54 54 54 55 55 55 55 55 55 54 54 54 54 53 53 53 54 54 54 55 55 55 55 55 55 54 53 52 50 49 47 47 46 45 45 44 44 44 43 43 42 42 41 41 41 41 40 40 40 40 40 40 40 40 40 39 39 39 39 38 38 37 36 36 35 34 34 34 34 34 33 33 33 33 32 32 32 32 32 31 31 31 31 30 30 30 29 29 29 29 28 28 28 28 28 28 28 28 28 28 28 28 28 28 28 28 28 28 29 29 29 29 29 29 29 29 29 29 29 29 29 29 29 29 28 28 28 28 28 28 28 28 28 28 28 27 27 27 27 27 27 27 27 27 27 27 27 27 26 26 25 24 21 19 19 18 18 18 18 18 18 18 18 18 18 18 18 18 18 18 19 21 22 22 22 22 22 22 22 22 22 22 21 21 21 21 21 21 21 21 21 21 21 21 21 21 21 21 21 21 21 21 21 21 21 21 21 21 21 21 21 21 21 21 21 21 21 21 21 22 22 22 23 23 23 23 23 23 24 25 26 26 26 26 25 24 24 23 24 24 25 26 28 29 31 32 33 34 34 34 34 34 33 33 32 31 30 30 29 29 29 29 29 28 28 28 28 28 28 28 28 28 28 28 29 29 29 29 29 29 29 29 30 30 30 30 30 29 29 29 29 29 29 29 28 28 27 27 27 26 26 26 26 26 26 26 25 24 23 22 21 21 20 19 19 19 18 18 18 18 18 17 17 18 18 18 18 17 17 17 17 16 15 14 14 13 12 11 9 8 7 7 7 7 7 7 7 7 7 7 7 7 7 7 7 7 9 12 14 17 18 19 20 21 21 21 21 21 21 21 21 21 21 21 20 20 20 20 20 20 20 20 20 20 20 20 20 20 20 19 19 19 19 19 19 19 19 19 19 19 19 19 19 19 18 18 18 18 18 18 18 18 18 18 18 18 18 18 18 18 18 18 18 18 18 18 18 18 18 18 18 18 18 18 18 18 18 18 18 18 18 18 18 18 18 18 18 18 18 18 18 18 18 18 18 18 18 18 18 18 18 18 17 17 17 17 17 17 17 17 17 17 17 16 16 16 16 16 16 16 16 15 15 15 14 14 14 13 13 13 12 12 10 8 6 5 4 4 4 4 4 4 4 4 4 4 3 3 3 3 3 3 3 3 3 3 3 3 3 3 3 3 3 3 3 3 3 3 3 3 3 3 3 3 3 4.095713
12 12 12 12 13 13 13 13 13 13 13 14 14 14 14 14 14 13 13 13 13 13 13 13 13 13 13 13 13 14 14 14 14 14 14 14 15 15 15 15 16 16 16 16 17 17 17 17 17 17 17 17 18 18 18 18 18 18 18 18 18 18 18 18 18 18 18 18 19 19 19 19 19 19 19 19 19 19 19 19 19 19 19 19 19 19 19 19 19 19 19 19 19 19 19 19 19 19 19 19 19 19 19 19 19 19 19 19 19 19 19 19 19 19 19 19 19 19 19 19 19 19 19 19 19 19 20 20 20 20 20 20 20 20 20 20 20 20 20 20 20 20 20 20 20 20 20 20 20 20 20 20 20 20 20 20 20 20 20 20 20 20 20 20 20 20 20 21 21 21 21 21 21 21 21 21 21 21 21 21 21 21 21 21 21 21 21 21 21 21 21 21 21 21 22 22 22 22 22 22 22 22 22 22 23 23 23 23 23 23 24 24 24 24 24 25 25 25 25 25 25 26 26 26 26 26 26 27 27 27 27 27 27 27 27 27 27 27 27 26 26 26 26 26 26 26 26 26 26 26 26 26 26 26 26 26 26 26 26 26 26 26 26 26 26 26 26 26 26 26 26 26 26 26 26 26 26 26 26 26 26 26 26 26 26 26 26 26 26 26 26 26 26 26 26 26 26 26 26 26 27 27 27 27 27 27 27 27 27 27 27 27 27 27 27 27 27 27 27 27 27 27 27 27 27 27 26 26 26 27 27 27 27 27 27 27 27 27 27 27 27 27 28 28 28 29 29 29 30 31 31 31 31 31 31 31 30 30 29 29 28 28 28 27 27 27 27 27 27 27 27 27 27 27 27 26 26 26 26 26 26 26 26 26 26 26 26 28 30 31 33 34 35 36 37 38 38 39 39 40 40 40 40 40 40 40 39 39 39 39 38 38 38 38 38 38 38 39 39 40 40 41 41 41 41 41 42 42 42 42 42 42 41 40 38 37 37 37 39 40 40 40 40 39 39 39 39 39 39 39 39 39 39 39 39 39 39 40 40 40 41 42 43 44 45 45 46 47 47 47 48 48 49 49 50 50 51 51 51 52 52 52 53 53 54 54 55 55 55 55 55 55 55 55 54 54 54 54 53 54 54 54 55 55 55 55 55 55 55 55 53 52 50 48 47 46 46 45 45 44 44 43 43 42 42 42 41 41 41 41 40 40 40 40 40 40 40 40 40 39 39 39 39 38 38 37 36 36 35 34 34 34 34 33 33 33 33 33 32 32 32 32 32 31 31 31 31 31 30 30 30 29 29 29 29 29 29 28 28 28 28 28 28 28 28 28 28 28 28 28 28 29 29 29 29 29 29 29 29 29 29 29 29 29 29 29 29 29 29 29 29 28 28 28 28 28 28 28 28 28 28 28 27 27 27 27 27 27 27 27 27 27 27 26 25 24 21 20 19 18 18 18 18 18 18 18 18 18 18 18 18 18 18 18 20 21 22 23 22 22 22 22 22 22 22 21 21 21 21 21 21 21 21 21 21 21 21 21 21 21 21 21 21 21 21 21 21 21 21 21 21 21 21 21 21 21 21 21 21 21 21 21 21 22 22 22 22 23 23 23 23 24 24 25 26 27 26 26 25 24 24 24 24 24 25 26 27 29 30 31 32 33 33 33 33 32 32 32 31 30 30 29 29 29 29 29 29 29 29 29 28 28 28 28 28 29 29 29 29 29 29 29 29 29 29 30 30 30 30 30 30 30 30 29 29 29 29 29 28 28 27 27 26 26 26 26 26 26 26 26 25 25 24 23 22 21 20 20 20 19 19 19 18 18 18 18 18 19 19 19 19 19 19 19 18 18 16 15 15 14 13 12 10 8 8 7 7 7 7 7 7 7 7 7 7 7 7 7 7 7 9 12 14 17 17 18 19 21 21 21 21 21 21 21 21 21 21 21 21 20 20 20 20 20 20 20 20 20 20 20 20 20 20 20 19 19 19 19 19 19 19 19 19 19 19 19 19 19 19 18 18 18 18 18 18 18 18 18 18 18 18 18 18 18 18 18 18 18 18 18 18 18 18 18 18 18 18 18 18 18 18 18 18 18 18 18 18 18 18 18 18 18 18 18 18 18 18 18 18 18 18 18 18 18 18 18 17 17 17 17 17 17 17 17 17 17 17 17 16 16 16 16 16 16 16 16 15 15 15 14 14 13 13 13 13 12 10 9 7 5 4 4 4 4 4 4 4 4 4 4 3 3 3 3 3 3 3 3 3 3 3 3 3 3 3 3 3 3 3 3 3 3 3 3 3 3 3 3 3 4.071676
12 12 12 12 13 13 13 13 13 13 14 14 14 14 14 14 14 13 13 13 13 13 13 13 13 13 13 13 13 14 14 14 14 14 14 14 14 15 15 15 15 16 16 16 17 17 17 17 17 17 17 18 18 18 18 18 18 18 18 18 18 18 18 19 19 19 19 19 19 19 19 19 19 19 19 19 19 19 19 19 19 19 19 19 19 19 19 19 19 19 19 19 19 19 19 19 19 19 19 19 19 19 19 19 19 19 19 19 19 19 19 19 19 19 19 20 20 20 20 20 20 20 20 20 20 20 20 20 20 20 20 20 20 20 20 20 20 20 20 20 20 20 20 20 20 20 20 20 20 20 20 20 20 20 20 20 20 20 20 20 20 20 21 21 21 21 21 21 21 21 21 21 21 21 21 21 21 21 21 21 21 21 21 21 21 21 21 21 21 21 21 21 22 22 22 22 22 22 22 22 22 22 22 23 23 23 23 23 23 23 24 24 24 24 24 24 25 25 25 25 25 26 26 26 26 26 26 27 27 27 27 27 27 27 27 27 27 27 27 26 26 26 26 26 26 26 26 26 26 26 26 26 26 26 26 26 26 26 26 26 26 26 26 26 26 26 26 26 26 26 26 26 26 26 26 26 26 26 26 26 26 26 26 26 26 26 26 26 26 26 26 26 26 26 26 26 26 26 26 26 27 27 27 27 27 27 27 27 27 27 27 27 27 27 27 27 27 27 27 27 27 27 27 27 27 26 26 26 26 26 26 27 27 27 27 27 27 27 27 27 27 27 27 27 28 28 28 29 29 30 30 30 31 31 31 30 30 29 29 29 28 28 28 27 27 27 27 27 27 27 27 27 27 27 27 26 26 26 26 26 26 26 26 26 26 26 26 27 29 31 32 34 35 36 37 38 38 39 39 39 40 40 40 40 40 40 39 39 39 38 38 38 37 37 37 37 37 38 39 39 40 41 41 41 41 42 42 42 42 42 42 42 41 40 38 37 37 37 39 40 40 40 39 39 39 39 39 39 39 39 39 39 39 39 39 39 39 39 40 40 41 42 43 44 44 45 46 46 47 47 48 48 49 49 49 50 51 51 52 52 52 53 53 54 54 55 55 55 55 55 55 55 55 55 55 54 54 54 54 54 54 54 55 55 55 55 56 56 55 55 54 52 50 48 47 46 45 45 44 44 43 43 43 42 42 42 41 41 41 41 40 40 40 40 40 40 40 40 40 39 39 39 38 38 38 37 36 35 35 34 34 33 33 33 33 33 33 33 32 32 32 32 32 31 31 31 31 31 31 30 30 30 29 29 29 29 29 29 29 28 28 28 28 28 28 28 28 28 28 28 29 29 29 29 29 29 29 29 29 29 29 29 29 29 29 29 29 29 29 29 29 29 28 28 28 28 28 28 28 28 28 28 28 28 27 27 27 27 27 27 27 27 27 26 25 24 22 20 19 18 18 18 18 18 18 18 18 18 18 18 18 18 18 19 20 22 23 23 23 22 22 22 22 22 22 21 21 21 21 21 21 21 21 21 21 21 21 21 22 22 22 22 22 22 22 22 22 22 22 22 22 22 22 22 21 21 21 21 21 21 21 21 21 22 22 22 22 23 23 23 24 24 25 26 26 27 27 26 25 25 24 24 24 25 25 26 27 28 30 31 31 31 31 31 31 31 31 30 30 30 29 29 29 29 29 29 29 29 29 29 29 29 29 29 29 29 29 29 29 29 29 29 29 29 30 30 30 30 30 30 30 30 30 29 29 29 29 28 28 27 27 26 26 26 26 26 26 26 26 26 25 25 24 23 22 22 21 20 20 20 20 19 19 19 19 19 19 20 20 20 20 20 20 20 20 19 18 16 16 15 14 12 10 8 8 7 7 7 7 7 7 7 7 7 7 7 7 7 7 7 9 12 14 17 17 18 19 21 21 21 21 21 21 21 21 21 21 21 21 21 20 20 20 20 20 20 20 20 20 20 20 20 20 20 19 19 19 19 19 19 19 19 19 19 19 19 19 19 19 19 18 18 18 18 18 18 18 18 18 18 18 18 18 18 18 18 18 18 18 18 18 18 18 18 18 18 18 18 18 18 18 18 18 18 18 18 18 18 18 18 18 18 18 18 18 18 18 18 18 18 18 18 18 18 18 18 17 17 17 17 17 17 17 17 17 17 17 17 16 16 16 16 16 16 16 16 15 15 15 14 14 14 14 14 13 13 11 10 8 5 5 4 4 4 4 4 4 4 4 4 3 3 3 3 3 3 3 3 3 3 3 3 3 3 3 3 3 3 3 3 3 3 3 3 3 3 3 3 3 4.047638
12 12 12 13 13 13 13 13 13 14 14 14 14 14 14 14 14 14 13 13 13 13 13 13 13 13 13 13 14 14 14 14 14 14 14 14 14 14 14 15 15 15 16 16 17 17 17 17 17 17 18 18 18 18 18 18 18 18 18 19 19 19 19 19 19 19 19 19 19 19 19 19 19 19 19 19 19 19 19 19 19 19 19 19 19 19 19 19 19 19 19 19 19 19 19 19 19 19 19 19 19 19 19 19 19 19 19 20 20 20 20 20 20 20 20 20 20 20 20 20 20 20 20 20 20 20 20 20 20 20 20 20 20 20 20 20 20 20 20 20 20 20 20 20 20 20 20 20 20 20 20 20 20 20 20 20 20 20 20 20 21 21 21 21 21 21 21 21 21 21 21 21 21 21 21 21 21 21 21 21 21 21 21 21 21 21 21 21 21 21 22 22 22 22 22 22 22 22 22 22 22 23 23 23 23 23 23 23 24 24 24 24 24 24 24 25 25 25 25 25 25 26 26 26 26 26 26 27 27 27 27 27 27 27 27 27 27 27 27 26 26 26 26 26 26 26 26 26 26 26 26 26 26 26 26 26 26 26 26 26 26 26 26 26 26 26 26 26 26 26 26 26 26 26 26 26 26 26 26 26 26 26 26 26 26 26 26 26 26 26 26 26 26 26 26 26 26 26 26 27 27 27 27 27 27 27 27 27 27 27 27 27 27 27 27 27 27 27 27 27 27 27 27 27 27 26 26 26 26 26 26 27 27 27 27 27 27 27 27 27 27 27 27 27 27 28 28 29 29 29 30 30 30 30 30 30 30 29 29 28 28 28 28 27 27 27 27 27 27 27 27 27 27 27 27 26 26 26 26 26 26 26 26 26 26 26 26 27 29 31 32 34 35 36 37 38 38 39 39 39 40 40 40 40 40 39 39 39 38 38 37 37 37 36 36 37 37 37 38 39 40 41 41 41 41 41 42 42 42 42 42 42 41 40 38 37 37 37 39 40 40 40 39 39 39 38 39 39 39 39 39 39 39 39 39 39 39 39 40 40 41 41 42 43 44 45 45 46 46 47 48 48 48 49 49 50 51 51 52 52 52 53 53 54 54 55 55 56 56 56 56 56 55 55 55 55 54 54 54 54 54 55 55 55 56 56 56 56 55 55 54 52 50 48 47 46 45 45 44 44 43 43 43 42 42 42 41 41 41 41 40 40 40 40 40 40 40 40 40 39 39 39 38 38 38 37 36 36 35 34 34 34 34 34 33 33 33 33 33 32 32 32 32 32 31 31 31 31 31 31 30 30 30 30 29 29 29 29 29 29 29 29 29 29 29 29 29 29 29 29 29 29 29 29 29 29 29 29 29 29 29 29 29 29 29 29 29 29 29 29 29 29 29 28 28 28 28 28 28 28 28 28 28 28 28 28 28 28 28 28 28 27 27 26 25 24 22 20 19 18 19 19 18 18 18 18 18 18 18 18 18 18 18 19 20 22 23 23 23 22 22 22 22 22 21 21 21 21 21 21 21 21 21 21 21 21 22 22 22 22 22 22 22 22 22 22 22 22 22 22 22 22 22 22 22 22 22 22 22 22 22 22 22 22 22 23 23 24 24 25 26 27 27 28 28 29 28 27 26 25 25 24 25 25 26 26 27 28 29 30 30 31 31 31 30 30 30 30 29 29 29 29 29 29 29 29 29 29 29 29 29 29 29 29 29 29 29 29 29 29 29 29 29 29 29 30 30 30 30 30 30 30 30 29 29 29 28 28 28 27 27 26 26 26 26 26 26 26 26 26 26 25 25 24 23 23 22 22 22 21 21 21 21 21 21 21 21 21 22 22 22 22 22 22 22 21 19 17 16 15 14 13 10 8 8 7 7 7 7 7 7 7 7 7 7 7 7 7 7 7 10 12 14 17 17 17 19 21 21 22 21 21 21 21 21 21 21 21 21 21 20 20 20 20 20 20 20 20 20 20 20 20 20 20 20 19 19 19 19 19 19 19 19 19 19 19 19 19 19 19 19 18 18 18 18 18 18 18 18 18 18 18 18 18 18 18 18 18 18 18 18 18 18 18 18 18 18 18 18 18 18 18 18 18 18 18 18 18 18 18 18 18 18 18 18 18 18 18 18 18 18 18 18 18 18 18 17 17 17 17 17 17 17 17 17 17 17 17 17 16 16 16 16 16 16 16 16 15 15 15 14 14 14 14 13 13 12 10 8 6 5 4 4 4 4 4 4 4 4 4 3 3 3 3 3 3 3 3 3 3 3 3 3 3 3 3 3 3 3 3 3 3 3 3 3 3 3 3 3 4.033571
12 12 13 13 13 13 13 13 14 14 14 14 14 14 14 14 14 14 13 13 13 13 13 13 13 13 13 13 14 14 14 14 14 14 14 14 14 14 14 14 14 15 15 16 16 17 17 17 17 18 18 18 18 18 18 18 18 19 19 19 19 19 19 19 19 19 19 19 19 19 19 19 19 19 19 19 19 19 19 19 19 19 19 19 19 19 19 19 19 19 19 19 19 19 19 19 19 19 19 19 19 19 19 20 20 20 20 20 20 20 20 20 20 20 20 20 20 20 20 20 20 20 20 20 20 20 20 20 20 20 20 20 20 20 20 20 20 20 20 20 20 20 20 20 20 20 20 20 20 20 20 20 20 20 20 20 21 21 21 21 21 21 21 21 21 21 21 21 21 21 21 21 21 21 21 21 21 21 21 21 21 21 21 21 22 22 22 22 22 22 22 22 22 22 22 22 22 22 23 23 23 23 23 23 23 23 23 24 24 24 24 24 24 24 25 25 25 25 25 25 25 25 26 26 26 26 26 27 27 27 27 27 27 27 27 27 27 27 26 26 26 26 26 26 26 26 26 26 26 26 26 26 26 26 26 26 26 26 26 26 26 26 26 26 26 26 26 26 26 26 26 26 26 26 26 26 26 26 26 26 26 26 26 26 26 26 26 26 26 26 26 26 26 26 26 26 26 26 27 27 27 27 27 27 27 27 27 27 27 27 27 27 27 27 27 27 27 27 27 27 27 27 27 27 27 26 26 26 26 26 26 27 27 27 27 27 27 27 27 27 27 27 27 27 27 27 28 28 29 29 29 30 30 30 30 30 29 29 29 28 28 28 28 27 27 27 27 27 27 27 27 27 27 27 27 26 26 26 26 26 26 26 26 26 26 26 26 27 29 30 32 34 35 36 37 37 38 39 39 39 40 40 40 40 40 39 39 38 38 37 37 36 36 36 36 36 36 37 38 39 40 40 41 41 41 41 42 42 42 42 42 42 41 39 37 37 37 37 39 40 40 40 39 39 39 38 38 39 39 39 39 39 39 39 39 39 39 39 40 40 40 41 42 43 44 45 45 46 46 47 47 48 48 49 49 50 51 51 52 52 52 53 53 54 55 55 56 56 56 56 56 56 56 55 55 55 55 54 54 54 54 55 55 55 56 56 56 56 56 55 54 52 50 48 47 46 45 44 44 44 43 43 43 42 42 42 42 41 41 41 41 40 40 40 40 40 40 40 40 40 39 39 39 38 38 37 37 36 35 35 34 34 34 34 34 33 33 33 33 33 33 32 32 32 32 32 31 31 31 31 31 31 30 30 30 30 30 29 29 29 29 29 29 29 29 29 29 29 29 29 29 29 29 29 29 29 29 29 30 30 30 29 29 29 29 29 29 29 29 29 29 29 29 29 28 28 28 28 28 28 28 28 28 28 28 28 28 28 28 28 28 27 27 26 26 24 22 20 19 19 19 19 19 18 18 18 18 18 18 18 18 18 18 19 21 22 23 24 23 22 22 22 22 22 21 21 21 21 21 21 21 21 21 21 22 22 22 22 22 22 22 22 22 22 22 22 22 22 22 22 22 22 22 22 22 22 22 22 22 22 22 22 22 22 23 23 24 25 26 27 28 29 30 30 30 30 30 29 27 26 25 25 25 25 26 26 27 28 29 30 30 30 30 30 30 30 29 29 29 29 28 28 28 29 29 29 29 29 29 29 29 29 29 29 29 29 29 29 29 29 29 29 29 29 29 29 30 30 30 30 30 30 29 29 29 29 28 28 28 27 27 27 26 26 26 26 26 26 26 26 26 26 25 25 24 24 24 23 23 23 23 23 22 22 22 22 23 23 24 24 24 24 24 23 23 22 20 18 17 16 15 13 11 8 8 7 7 7 7 7 7 7 7 7 7 7 7 7 7 8 10 12 14 16 17 17 19 21 21 22 22 21 21 21 21 21 21 21 21 21 21 20 20 20 20 20 20 20 20 20 20 20 20 20 20 19 19 19 19 19 19 19 19 19 19 19 19 19 19 19 19 19 18 18 18 18 18 18 18 18 18 18 18 18 18 18 18 18 18 18 18 18 18 18 18 18 18 18 18 18 18 18 18 18 18 18 18 18 18 18 18 18 18 18 18 18 18 18 18 18 18 18 18 18 18 18 17 17 17 17 17 17 17 17 17 17 17 17 17 17 16 16 16 16 16 16 16 15 15 15 15 14 14 14 14 13 12 11 9 6 5 4 4 4 4 4 4 4 4 4 4 3 3 3 3 3 3 3 3 3 3 3 3 3 3 3 3 3 3 3 3 3 3 3 3 3 3 3 3 4.0195036
11 12 12 13 13 13 13 13 14 14 14 14 14 14 14 14 14 14 13 13 13 13 13 13 13 13 13 13 14 14 14 14 14 14 14 14 14 14 14 14 14 14 15 15 16 17 17 17 17 18 18 18 18 18 18 19 19 19 19 19 19 19 19 19 19 19 19 19 19 19 19 19 19 19 19 19 19 19 19 19 19 19 19 19 19 19 19 19 19 19 19 19 19 19 19 19 20 20 20 20 20 20 20 20 20 20 20 20 20 20 20 20 20 20 20 20 20 20 20 20 20 20 20 20 20 20 20 20 20 20 20 20 20 20 20 20 20 20 20 20 20 20 20 20 20 20 20 20 21 21 21 21 21 21 21 21 21 21 21 21 21 21 21 21 21 21 21 21 21 21 21 21 21 21 21 21 21 21 21 22 22 22 22 22 22 22 22 22 22 22 22 22 22 22 22 22 22 23 23 23 23 23 23 23 23 23 24 24 24 24 24 24 24 25 25 25 25 25 25 25 25 26 26 26 26 26 26 27 27 27 27 27 27 27 27 27 27 27 27 26 26 26 26 26 26 26 26 26 26 26 26 26 26 26 26 26 26 26 26 26 26 26 26 26 26 26 26 26 26 26 26 26 26 26 26 26 26 26 26 26 26 26 26 26 26 26 26 26 26 26 26 26 26 26 26 27 27 27 27 27 27 27 27 27 27 27 27 27 27 27 27 27 27 27 27 27 27 27 27 27 27 27 27 27 27 27 26 26 26 26 27 27 27 27 27 27 27 27 27 27 27 27 27 27 27 27 28 28 28 29 29 29 30 30 30 30 29 29 29 28 28 28 28 27 27 27 27 27 27 27 27 27 27 27 27 26 26 26 26 26 26 26 26 26 26 26 26 27 29 30 32 33 34 36 37 37 38 38 39 39 40 40 40 40 39 39 38 38 37 37 36 35 35 35 35 35 36 36 37 38 39 40 41 41 41 41 41 42 42 42 42 42 41 39 37 37 37 38 39 40 40 40 39 39 39 38 39 39 39 39 39 39 39 39 39 39 39 39 40 40 40 41 42 43 44 44 45 45 46 46 47 48 48 49 49 50 50 51 51 52 52 53 53 54 55 55 56 56 56 56 56 56 56 56 56 55 55 55 55 55 55 55 55 56 56 56 56 56 56 55 53 52 49 48 47 46 45 44 44 44 43 43 43 43 42 42 42 41 41 41 41 40 40 40 40 40 40 40 40 40 39 39 39 38 38 38 37 36 35 35 35 35 34 34 34 34 34 33 33 33 33 33 32 32 32 32 32 32 32 32 31 31 31 31 31 30 30 30 30 29 29 29 29 29 29 29 29 29 29 29 29 29 29 29 29 30 30 30 30 30 30 30 30 30 30 30 30 29 29 29 29 29 29 29 29 29 28 28 28 28 28 28 28 28 28 28 28 28 28 28 28 28 27 26 26 24 22 21 19 19 19 19 19 19 19 18 18 18 18 18 18 18 18 19 21 22 23 24 23 22 22 22 22 22 22 21 21 21 21 21 21 22 22 22 22 22 22 22 22 22 22 22 22 22 22 22 22 22 22 22 22 22 22 22 22 22 22 22 22 22 22 23 23 24 25 26 27 28 29 31 32 33 33 34 34 33 32 31 29 27 27 26 26 26 26 27 28 28 29 30 30 30 30 29 29 29 29 29 29 28 28 28 28 29 29 29 29 29 29 29 29 29 29 29 29 29 29 29 29 29 29 29 29 29 29 29 29 30 30 30 30 29 29 29 29 29 29 28 28 28 27 27 27 27 27 27 27 27 27 27 27 27 27 26 26 26 26 25 25 25 25 25 25 24 24 24 24 25 25 25 25 25 25 24 24 23 21 19 17 16 15 14 11 9 8 7 7 7 7 7 7 7 7 7 7 7 7 7 7 8 10 12 14 16 16 17 19 21 21 22 22 21 21 21 21 21 21 21 21 21 21 21 20 20 20 20 20 20 20 20 20 20 20 20 20 20 19 19 19 19 19 19 19 19 19 19 19 19 19 19 19 19 18 18 18 18 18 18 18 18 18 18 18 18 18 18 18 18 18 18 18 18 18 18 18 18 18 18 18 18 18 18 18 18 18 18 18 18 18 18 18 18 18 18 18 18 18 18 18 18 18 18 18 18 18 18 18 17 17 17 17 17 17 17 17 17 17 17 17 17 16 16 16 16 16 16 16 16 15 15 15 15 14 14 14 14 13 12 9 7 5 4 4 4 4 4 4 4 4 4 4 3 3 3 3 3 3 3 3 3 3 3 3 3 3 3 3 3 3 3 3 3 3 3 3 3 3 3 3 4.019304
11 12 12 13 13 13 13 14 14 14 14 14 14 14 14 14 14 14 13 13 13 13 13 13 13 13 13 14 14 14 14 14 14 14 14 14 14 14 14 14 14 14 14 15 16 16 17 17 17 18 18 18 18 18 19 19 19 19 19 19 19 19 19 19 19 19 19 19 19 19 19 19 19 19 19 19 19 19 19 19 19 19 19 19 19 19 19 19 19 19 19 19 19 20 20 20 20 20 20 20 20 20 20 20 20 20 20 20 20 20 20 20 20 20 20 20 20 20 20 20 20 20 20 20 20 20 20 20 20 20 20 20 20 20 20 20 20 20 20 20 20 20 20 20 20 20 21 21 21 21 21 21 21 21 21 21 21 21 21 21 21 21 21 21 21 22 22 22 22 22 22 22 22 22 22 22 22 22 22 22 22 22 22 22 22 22 22 22 22 22 22 22 22 22 22 23 23 23 23 23 23 23 23 23 24 24 24 24 24 24 24 24 25 25 25 25 25 25 25 25 26 26 26 26 26 26 27 27 27 27 27 27 27 27 27 27 27 27 27 26 26 26 26 26 26 26 26 26 26 26 26 26 26 26 26 26 26 26 26 26 26 26 26 26 26 26 26 26 26 26 26 26 26 26 26 26 26 26 26 26 26 26 26 26 26 26 26 26 26 26 26 26 27 27 27 27 27 27 27 27 27 27 27 27 27 27 27 27 27 27 27 27 27 27 27 27 27 27 27 27 27 27 27 27 27 27 27 27 26 27 27 27 27 27 27 27 27 27 27 27 27 27 27 27 27 27 27 28 28 28 29 29 29 29 29 29 29 29 29 28 28 28 27 27 27 27 27 27 27 27 27 27 27 27 27 26 26 26 26 26 26 26 26 26 26 26 27 27 29 30 32 33 34 35 36 37 38 38 39 39 40 40 40 39 39 38 37 37 36 36 35 35 34 34 34 35 35 36 37 38 39 40 40 41 41 41 41 41 42 42 42 42 41 39 37 37 37 38 39 40 40 40 39 39 39 38 39 39 39 39 39 39 39 39 39 39 39 39 40 40 40 41 42 43 43 44 44 45 45 46 47 47 48 49 49 50 50 51 51 51 52 52 53 54 55 55 56 56 57 57 57 57 56 56 56 56 55 55 55 55 55 55 55 56 56 56 56 56 56 55 53 51 49 48 46 46 45 44 44 44 44 43 43 43 42 42 42 42 41 41 41 41 40 40 40 40 40 40 40 40 39 39 39 39 38 38 37 37 36 35 35 35 35 35 34 34 34 34 34 33 33 33 33 33 32 32 32 32 32 32 32 32 32 31 31 31 31 30 30 30 30 30 30 30 30 30 29 29 29 29 29 29 29 30 30 30 30 30 30 30 30 30 30 30 30 30 30 30 30 30 29 29 29 29 29 29 29 29 29 28 28 28 28 28 28 28 28 28 28 28 28 28 27 27 26 25 23 21 20 19 19 19 19 19 19 19 19 18 18 18 18 18 18 19 21 22 23 24 23 22 22 22 22 22 22 22 22 22 22 22 22 22 22 22 22 22 22 22 22 22 22 23 23 23 23 23 23 23 23 23 23 23 23 23 23 23 23 23 23 23 23 24 24 25 26 28 30 31 33 34 36 37 37 37 37 36 34 33 31 29 28 27 27 27 27 27 28 28 29 29 29 29 29 29 29 29 29 28 28 28 28 28 28 29 29 29 29 29 29 29 29 29 29 29 29 29 29 29 29 29 29 29 29 29 29 29 29 29 29 29 29 29 29 29 29 29 29 28 28 28 28 28 28 28 28 28 28 28 28 28 28 28 28 28 28 28 28 28 28 28 27 27 27 26 26 26 26 26 26 27 27 27 26 25 25 24 21 19 18 17 16 14 11 9 8 8 8 7 7 7 7 7 7 7 7 7 7 7 7 8 10 12 14 16 16 17 19 21 22 22 22 22 21 21 21 21 21 21 21 21 21 21 20 20 20 20 20 20 20 20 20 20 20 20 20 20 19 19 19 19 19 19 19 19 19 19 19 19 19 19 19 19 19 18 18 18 18 18 18 18 18 18 18 18 18 18 18 18 18 18 18 18 18 18 18 18 18 18 18 18 18 18 18 18 18 18 18 18 18 18 18 18 18 18 18 18 18 18 18 18 18 18 18 18 18 18 18 17 17 17 17 17 17 17 17 17 17 17 17 17 17 16 16 16 16 16 16 16 15 15 15 15 15 14 14 14 13 12 10 7 6 4 4 4 4 4 4 4 4 4 4 3 3 3 3 3 3 3 3 3 3 3 3 3 3 3 3 3 3 3 3 3 3 3 3 3 3 3 3 4.019104
10 11 11 12 12 13 13 13 14 14 14 14 14 14 14 14 14 14 13 13 13 13 13 13 13 13 13 14 14 14 14 14 14 14 14 14 14 14 14 14 14 14 14 15 16 16 17 17 17 18 18 18 18 19 19 19 19 19 19 19 19 19 19 19 19 19 19 19 19 19 19 19 19 19 19 19 19 19 19 19 19 19 19 19 19 19 19 19 19 20 20 20 20 20 20 20 20 20 20 20 20 20 20 20 20 20 20 20 20 20 20 20 20 20 20 20 20 20 20 20 20 20 20 20 20 20 20 20 20 20 20 20 20 20 20 20 20 20 20 20 20 20 21 21 21 21 21 21 21 21 21 21 21 21 21 21 21 21 21 21 21 21 21 22 22 22 22 22 22 22 22 22 22 22 22 22 22 22 22 22 22 22 22 22 22 22 22 22 22 22 22 22 22 22 22 23 23 23 23 23 23 23 23 24 24 24 24 24 24 24 24 25 25 25 25 25 25 25 25 26 26 26 26 26 26 27 27 27 27 27 27 27 27 27 27 27 27 27 27 27 27 26 26 26 26 26 26 26 26 26 26 26 26 26 26 26 26 26 26 26 26 26 26 26 26 26 26 26 26 26 26 26 26 26 26 26 26 26 26 26 26 26 26 26 26 26 26 26 26 26 27 27 27 27 27 27 27 27 27 27 27 27 27 27 27 27 27 27 27 27 27 27 27 27 27 27 27 27 27 27 27 27 27 27 27 27 27 27 27 27 27 27 27 27 27 27 27 27 27 27 27 27 27 27 27 27 27 28 28 28 29 29 29 29 29 29 29 29 28 28 28 28 27 27 27 27 27 27 27 27 27 27 27 27 27 26 26 26 26 26 26 26 26 26 26 26 27 28 29 30 32 33 34 35 36 37 38 38 38 39 39 39 39 38 38 37 36 35 35 34 34 34 33 33 33 34 34 35 36 37 38 39 40 40 41 41 41 41 42 42 42 42 41 39 37 37 37 38 39 40 40 40 39 39 39 38 39 39 39 39 39 39 39 39 39 39 39 39 40 40 41 41 42 42 43 44 44 45 45 46 46 47 48 48 49 49 50 50 50 51 51 52 52 53 54 55 56 56 57 57 57 57 57 57 56 56 56 56 55 55 55 55 56 56 56 57 56 56 56 55 53 51 49 48 47 46 45 45 44 44 44 44 43 43 43 42 42 42 42 41 41 41 41 40 40 40 40 40 40 40 39 39 39 39 38 38 38 37 36 36 35 35 35 35 35 35 34 34 34 34 33 33 33 33 33 33 33 33 33 33 33 32 32 32 32 32 31 31 31 30 30 30 30 30 30 30 30 30 30 30 30 30 30 30 30 30 30 30 30 30 30 30 30 30 30 30 30 30 30 30 30 30 29 29 29 29 29 29 29 29 29 29 28 28 28 28 28 28 28 28 28 28 27 27 26 25 23 21 20 19 19 19 19 19 19 19 19 19 19 19 19 19 19 19 21 22 23 24 23 22 22 22 22 22 22 22 22 22 22 22 22 22 22 22 22 22 22 22 23 23 23 23 23 23 23 23 23 23 23 23 23 23 23 23 23 23 23 23 24 24 25 25 26 28 30 32 34 36 37 39 40 41 41 41 40 39 37 35 32 31 30 29 28 28 28 28 28 29 29 29 29 29 29 29 29 28 28 28 28 28 28 28 28 28 29 29 29 29 29 29 29 29 29 29 29 29 29 29 29 29 29 29 29 29 29 29 29 29 29 29 29 29 29 29 29 29 29 29 29 29 29 29 29 29 29 29 29 29 29 29 29 29 29 29 29 29 29 29 29 29 29 28 28 27 27 27 27 27 27 27 27 27 26 26 25 24 21 19 18 17 16 15 12 9 8 8 8 8 8 7 8 8 7 7 7 7 7 7 7 8 10 12 14 16 16 16 19 21 22 22 22 22 22 21 21 21 21 21 21 21 21 21 21 20 20 20 20 20 20 20 20 20 20 20 20 20 20 19 19 19 19 19 19 19 19 19 19 19 19 19 19 19 19 19 18 18 18 18 18 18 18 18 18 18 18 18 18 18 18 18 18 18 18 18 18 18 18 18 18 18 18 18 18 18 18 18 18 18 18 18 18 18 18 18 18 18 18 18 18 18 18 18 18 18 18 18 18 17 17 17 17 17 17 17 17 17 17 17 17 17 17 17 16 16 16 16 16 16 16 15 15 15 15 15 14 14 13 13 10 8 6 4 4 4 4 4 4 4 4 4 4 3 3 3 3 3 3 3 3 3 3 3 3 3 3 3 3 3 3 3 3 3 3 3 3 3 3 3 3 4.037676
10 10 11 11 12 12 13 13 13 14 14 14 14 14 14 14 14 14 13 13 13 13 13 13 13 13 13 14 14 14 14 14 14 14 14 14 14 14 14 14 14 14 14 15 15 16 17 17 18 18 18 18 18 19 19 19 19 19 19 19 19 19 19 19 19 19 19 19 19 19 19 19 19 19 19 19 19 19 19 19 20 20 20 20 20 20 20 20 20 20 20 20 20 20 20 20 20 20 20 20 20 20 20 20 20 20 20 20 20 20 20 20 20 20 20 20 20 20 20 20 20 20 20 20 20 20 20 20 20 20 20 20 20 20 20 20 20 20 21 21 21 21 21 21 21 21 21 21 21 21 21 21 21 21 21 21 21 21 22 22 22 22 22 22 22 22 22 22 22 22 22 22 22 22 22 22 22 22 22 22 22 22 22 22 22 22 22 22 22 22 22 22 22 23 23 23 23 23 23 23 23 23 24 24 24 24 24 24 24 24 25 25 25 25 25 25 25 25 26 26 26 26 26 26 26 27 27 27 27 27 27 27 27 27 27 27 27 27 27 27 27 26 26 26 26 26 26 26 26 26 26 26 26 26 26 26 26 26 26 26 26 26 26 26 26 26 26 26 26 26 26 26 26 26 26 26 26 26 26 26 26 26 26 26 26 26 26 26 26 27 27 27 27 27 27 27 27 27 27 27 27 27 27 27 27 27 27 27 27 27 27 27 27 27 27 27 27 27 27 27 27 27 27 27 27 27 27 27 27 27 27 27 27 27 27 27 27 27 27 27 27 27 27 27 27 27 27 27 28 28 28 29 29 29 29 29 29 28 28 28 28 28 27 27 27 27 27 27 27 27 27 27 27 27 27 26 26 26 26 26 26 26 26 26 26 27 27 28 29 31 32 33 34 35 36 37 37 38 38 38 39 39 38 37 37 36 35 34 34 33 33 33 33 33 33 33 33 34 35 36 37 39 39 40 40 41 41 41 42 42 42 42 41 39 38 37 37 38 39 40 40 40 39 39 39 38 39 39 39 39 39 39 39 39 39 39 39 39 40 40 41 41 42 42 43 43 44 44 45 45 46 47 47 48 48 49 49 50 50 50 51 51 52 53 54 55 56 56 57 57 57 57 57 57 57 56 56 56 56 56 56 56 56 56 57 57 57 56 56 55 53 51 49 48 47 46 45 45 45 44 44 44 44 43 43 43 43 42 42 42 41 41 41 41 40 40 40 40 40 40 39 39 39 39 39 38 38 37 36 36 35 35 35 35 35 35 35 34 34 34 34 34 33 33 33 33 33 33 33 33 33 33 33 33 33 33 32 32 31 31 31 31 31 31 31 30 30 30 30 30 30 30 30 30 30 30 30 30 30 30 30 30 30 30 30 30 30 30 30 30 30 30 30 30 29 29 29 29 29 29 29 29 29 29 29 28 28 28 28 28 28 28 27 27 26 25 23 21 20 19 19 19 19 19 19 19 19 19 19 19 19 19 19 19 21 22 23 24 23 23 22 22 22 22 22 22 22 22 22 22 22 22 22 22 22 23 23 23 23 23 23 23 23 23 23 23 23 23 23 23 23 23 23 23 24 24 24 24 24 25 26 27 29 30 33 35 38 40 42 43 44 44 44 44 43 41 39 37 34 32 31 30 30 29 29 28 29 29 29 29 29 29 28 28 28 28 28 28 28 28 28 28 28 28 29 29 29 29 29 29 29 29 29 29 29 29 29 29 29 29 29 29 29 29 29 29 29 29 29 29 29 29 29 29 29 29 29 30 30 30 30 30 30 30 30 30 30 30 30 30 30 30 30 31 31 31 31 31 31 30 30 30 29 28 28 27 27 27 28 28 28 28 27 26 25 24 21 19 18 17 16 15 12 10 9 8 8 8 8 8 8 8 8 8 8 8 8 7 7 8 10 12 14 16 16 16 18 20 22 23 22 22 22 22 22 21 21 21 21 21 21 21 21 21 20 20 20 20 20 20 20 20 20 20 20 20 20 19 19 19 19 19 19 19 19 19 19 19 19 19 19 19 19 19 18 18 18 18 18 18 18 18 18 18 18 18 18 18 18 18 18 18 18 18 18 18 18 18 18 18 18 18 18 18 18 18 18 18 18 18 18 18 18 18 18 18 18 18 18 18 18 18 18 18 18 18 18 17 17 17 17 17 17 17 17 17 17 17 17 17 17 17 16 16 16 16 16 16 16 15 15 15 15 15 15 14 14 13 11 8 6 4 4 4 4 4 4 4 4 4 4 3 3 3 3 3 3 3 3 3 3 3 3 3 3 3 3 3 3 3 3 3 3 3 3 3 3 3 3 4.056247
