17 17 17 17 17 17 17 17 18 18 18 18 18 18 18 18 18 18 18 18 18 18 18 18 18 18 18 18 18 18 18 18 18 18 18 18 18 18 18 18 18 18 18 18 18 18 18 18 18 19 19 19 19 19 19 19 19 19 19 19 19 19 19 19 19 19 19 19 19 19 19 19 19 19 19 19 19 19 19 19 19 19 19 19 19 19 19 19 19 19 19 19 19 19 19 19 19 19 19 19 19 19 19 19 19 19 19 19 19 19 19 19 19 19 19 19 19 19 19 19 19 19 19 19 19 19 19 19 19 19 19 19 19 19 20 20 20 20 20 20 20 20 20 20 20 20 20 20 20 20 20 20 20 20 20 20 20 20 20 20 20 20 20 20 21 21 21 21 21 21 21 21 21 21 21 21 21 21 21 21 21 21 21 21 21 21 21 21 21 21 21 21 21 21 22 22 22 22 22 22 22 22 22 22 22 23 23 23 23 23 24 24 24 24 24 24 24 24 24 24 25 25 25 25 24 24 24 24 24 24 24 24 24 24 24 25 25 25 25 25 25 25 25 25 25 25 25 25 26 26 26 26 26 26 26 26 26 26 26 26 26 26 27 26 26 26 26 26 26 26 26 26 26 26 26 26 26 26 26 26 26 26 26 26 26 26 26 26 26 26 26 26 26 26 26 26 26 26 26 26 26 26 26 26 26 26 26 26 26 26 26 26 27 27 28 29 31 32 33 34 34 34 35 37 38 39 39 39 39 39 38 38 37 36 35 34 33 32 32 32 32 32 31 31 31 31 31 31 31 31 31 32 32 32 32 32 33 33 33 33 33 33 34 34 34 35 36 37 38 39 40 42 43 45 46 47 47 47 47 47 47 47 47 47 47 47 46 46 45 44 43 42 42 41 40 39 38 37 37 37 37 36 36 36 36 36 36 36 36 36 36 36 36 37 37 38 38 39 39 40 41 41 42 42 42 42 43 43 43 43 43 43 43 43 43 44 44 44 44 45 45 45 46 47 47 48 48 49 50 51 51 52 53 54 55 55 56 56 56 56 56 56 55 55 54 54 54 54 54 54 53 53 53 52 52 51 49 47 45 43 43 42 41 41 41 40 40 40 40 40 39 39 39 39 38 38 38 37 36 36 35 34 33 32 31 30 30 29 28 27 26 26 26 25 25 25 25 25 26 26 26 26 26 26 26 26 27 27 27 27 28 28 28 28 28 28 28 28 29 29 30 30 31 31 31 31 31 31 31 31 31 31 32 33 34 35 36 37 38 38 37 36 34 33 32 30 27 25 23 22 22 22 22 22 22 21 21 21 21 21 21 21 21 22 24 24 25 25 24 23 23 22 21 21 22 22 22 22 23 23 23 23 24 25 27 29 30 31 30 29 29 28 27 27 27 27 27 26 26 26 26 26 25 25 25 25 25 25 25 25 25 25 25 25 24 24 25 25 26 26 26 26 25 25 23 22 20 20 20 20 21 23 26 30 33 35 35 35 35 34 33 30 27 23 18 15 15 14 14 15 16 17 20 23 24 26 28 30 33 36 36 36 36 37 37 37 37 37 37 37 37 37 37 37 37 37 37 37 36 36 36 36 36 36 36 36 35 33 28 24 22 20 19 19 18 17 16 15 13 11 10 10 10 10 10 10 10 10 10 10 10 10 11 12 16 20 23 26 27 27 27 26 26 26 26 26 27 27 27 27 27 27 26 25 23 22 21 20 17 14 11 8 8 8 8 8 8 8 8 8 8 8 8 8 8 8 8 8 10 13 19 24 25 26 26 26 26 26 27 27 26 26 26 26 26 26 27 27 27 28 28 28 28 28 28 28 28 28 28 28 28 28 28 28 28 28 28 28 28 28 28 28 28 28 28 28 28 28 28 28 28 28 28 28 28 28 28 28 27 27 27 27 27 27 27 27 27 27 27 26 26 26 26 26 26 26 26 26 26 26 26 26 26 26 26 26 26 26 25 25 25 25 25 25 25 25 25 25 24 24 24 24 24 24 23 23 23 23 23 22 22 22 22 22 22 22 22 22 22 22 22 22 22 22 22 22 22 22 22 22 22 22 22 22 22 22 22 22 22 22 21 21 21 21 22 22 21 21 20 20 19 19 19 19 19 19 19 19 18 18 18 18 17 17 17 16 16 16 15 15 15 15 15 15 15 15 15 15 14 14 14 14 14 14 14 14 14 14 14 14 14 14 14 13 13 13 13 13 13 13 13 12 12 12 12 12 12 12 12 12 12 12 12 12 12 12 12 12 12 12 12 12 12 12 12 12 12 12 12 12 11 11 11 11 11 11 10 10 10 10.614401
17 17 17 17 17 17 17 17 18 18 18 18 18 18 18 18 18 18 18 18 18 18 18 18 18 18 18 18 18 18 18 18 18 18 18 18 18 18 18 18 18 18 18 18 18 18 18 18 18 19 19 19 19 19 19 19 19 19 19 19 19 19 19 19 19 19 19 19 19 19 19 19 19 19 19 19 19 19 19 19 19 19 19 19 19 19 19 19 19 19 19 19 19 19 19 19 19 19 19 19 19 19 19 19 19 19 19 19 19 19 19 19 19 19 19 19 19 19 19 19 19 19 19 19 19 19 19 19 19 19 19 19 19 19 20 20 20 20 20 20 20 20 20 20 20 20 20 20 20 20 20 20 20 20 20 20 20 20 20 20 20 20 20 20 20 21 21 21 21 21 21 21 21 21 21 21 21 21 21 21 21 21 21 21 21 21 21 21 21 21 21 21 21 21 22 22 22 22 22 22 22 22 22 22 22 23 23 23 23 23 24 24 24 24 24 24 24 24 25 25 25 25 25 25 25 25 25 25 25 24 24 24 24 24 25 25 25 25 25 25 25 25 25 25 25 25 25 25 25 26 26 26 26 26 26 26 26 26 26 26 26 26 26 26 26 26 26 26 26 26 26 26 26 26 26 26 26 26 26 26 26 26 26 26 26 26 26 26 26 26 26 26 26 26 26 26 26 26 26 26 26 26 26 26 26 26 26 26 26 26 26 26 27 27 27 28 30 31 32 33 33 34 35 36 37 38 38 38 38 37 37 36 35 34 33 33 32 32 32 32 31 31 31 31 31 31 31 31 31 31 31 31 32 32 32 32 32 32 33 33 33 33 33 34 34 35 35 36 37 39 40 41 43 44 46 47 47 47 47 47 47 47 47 47 47 47 47 46 45 44 43 42 42 41 40 39 38 37 37 37 37 36 36 36 36 36 36 36 36 36 36 36 36 37 37 38 38 39 39 40 41 41 41 42 42 42 43 43 43 43 43 43 43 43 43 44 44 44 44 44 45 45 46 46 47 48 48 49 50 51 51 52 53 54 55 55 56 56 56 56 56 56 56 55 55 54 54 54 54 54 54 53 53 52 52 50 48 46 44 43 42 41 41 40 40 40 40 40 39 39 39 39 38 38 38 38 38 37 37 36 35 35 34 33 32 31 31 30 29 28 27 27 26 26 26 26 26 26 26 26 27 27 27 27 27 27 27 28 28 28 29 29 29 29 29 29 29 29 30 30 31 32 32 32 33 33 33 33 32 32 32 33 34 35 36 37 37 38 39 39 38 36 35 33 32 30 28 26 24 23 22 22 22 22 22 22 22 21 21 21 21 21 22 23 24 25 25 25 25 24 23 22 21 21 22 22 22 22 23 23 23 23 23 25 27 29 30 31 30 30 29 28 27 27 27 27 27 26 26 26 26 26 25 25 25 25 25 25 25 25 25 25 25 25 25 25 26 26 27 27 27 27 26 25 24 22 20 20 20 20 22 24 27 31 34 36 36 36 36 35 33 31 27 23 18 15 15 14 14 15 16 17 21 23 25 26 28 30 33 35 36 36 37 37 37 37 37 37 37 37 37 37 37 37 37 37 37 37 37 37 36 36 36 36 36 36 35 33 27 23 22 20 20 19 18 18 17 16 13 11 10 10 10 10 10 10 10 10 10 10 10 10 10 12 16 20 24 26 27 28 27 26 26 26 26 26 26 27 27 28 27 27 26 25 24 23 22 20 17 14 11 8 8 8 8 8 8 8 8 8 8 8 8 8 8 8 8 9 11 14 21 26 27 27 27 28 28 28 28 28 28 27 27 27 27 27 27 28 28 28 28 28 28 28 28 28 28 28 28 28 28 28 28 28 28 28 28 28 28 28 28 29 29 29 29 29 28 28 28 28 28 28 28 28 28 28 28 28 27 27 27 27 27 27 27 27 27 27 27 26 26 26 26 26 26 26 26 26 26 26 26 26 26 26 26 26 26 26 26 25 25 25 25 25 25 25 25 25 24 24 24 24 24 24 23 23 23 23 23 22 22 22 22 22 22 22 22 22 22 22 22 22 22 22 22 22 22 22 22 22 22 22 22 22 22 22 22 22 22 22 21 21 22 22 22 22 21 20 20 19 18 18 17 17 17 18 18 18 18 18 18 17 17 17 16 16 15 15 15 15 14 14 14 14 14 14 14 13 13 13 13 13 13 13 13 13 13 13 13 13 13 13 13 13 13 12 12 12 12 12 12 12 12 12 12 12 12 12 12 12 12 12 12 12 12 11 11 11 11 11 11 11 11 11 11 11 11 11 11 11 11 11 10 10 10 10 10 10 10 10.200873
17 17 17 17 17 17 17 17 18 18 18 18 18 18 18 18 18 18 18 18 18 18 18 18 18 18 18 18 18 18 18 18 18 18 18 18 18 18 18 18 18 18 18 18 18 18 18 18 19 19 19 19 19 19 19 19 19 19 19 19 19 19 19 19 19 19 19 19 19 19 19 19 19 19 19 19 19 19 19 19 19 19 19 19 19 19 19 19 19 19 19 19 19 19 19 19 19 19 19 19 19 19 19 19 19 19 19 19 19 19 19 19 19 19 19 19 19 19 19 19 19 19 19 19 19 19 19 19 19 19 19 19 19 19 20 20 20 20 20 20 20 20 20 20 20 20 20 20 20 20 20 20 20 20 20 20 20 20 20 20 20 20 20 21 21 21 21 21 21 21 21 21 21 21 21 21 21 21 21 21 21 21 21 21 21 21 21 21 21 21 21 21 21 21 22 22 22 22 22 22 22 22 22 22 22 23 23 23 23 23 24 24 24 24 24 24 25 25 25 25 25 25 25 25 25 25 25 25 25 25 25 25 25 25 25 25 25 25 25 25 25 25 25 25 25 25 25 25 26 26 26 26 26 26 26 26 26 26 26 26 26 27 26 26 26 26 26 26 26 26 26 26 26 26 26 26 26 26 26 26 26 26 26 26 26 26 26 26 26 26 26 26 26 26 26 26 26 26 26 26 26 26 26 26 26 26 26 26 26 26 26 26 27 27 27 28 29 30 32 32 33 33 34 35 36 37 37 37 37 36 36 35 34 33 33 32 32 32 32 31 31 31 31 31 31 31 31 31 31 31 31 31 32 32 32 32 32 32 32 32 33 33 33 33 34 34 35 36 37 38 39 41 42 44 45 46 47 47 47 47 47 47 47 47 47 47 47 46 45 44 43 42 42 41 40 39 38 37 37 37 37 36 36 36 36 36 36 36 36 36 36 36 37 37 37 37 38 39 39 40 40 41 41 42 42 42 43 43 43 43 43 43 43 43 43 44 44 44 44 44 45 45 46 46 47 47 48 49 50 50 51 52 53 54 54 55 56 56 56 56 56 56 56 56 55 55 54 54 54 54 54 53 53 52 51 50 48 46 44 43 42 41 41 40 40 40 40 39 39 39 39 38 38 38 38 38 38 37 37 36 36 35 35 34 33 33 32 31 30 29 29 28 28 27 27 27 27 27 28 28 28 28 29 29 29 29 29 30 30 31 31 31 31 31 31 31 31 31 31 32 33 34 34 35 35 35 35 35 34 34 34 34 35 36 37 38 38 39 39 39 38 37 35 34 33 31 28 26 24 23 23 23 23 23 23 23 23 22 22 22 21 22 22 23 25 26 26 25 25 24 23 22 21 21 22 22 22 22 23 23 23 23 24 25 27 28 30 30 30 29 28 27 26 26 26 26 26 26 26 26 26 26 25 25 25 25 25 25 25 25 25 25 25 25 25 26 26 27 28 29 28 28 27 26 24 22 20 20 20 20 22 24 28 31 35 37 37 36 36 36 34 31 27 23 18 15 14 14 14 15 16 18 21 24 25 26 28 31 33 35 36 36 37 37 37 37 37 37 37 37 37 37 37 37 37 37 37 37 37 37 37 36 36 36 36 36 35 32 27 23 22 21 20 20 19 19 18 17 14 11 11 10 10 10 10 10 10 10 10 10 10 10 10 12 16 20 23 26 27 27 26 25 25 25 25 25 25 26 27 27 27 27 27 26 25 23 23 21 18 15 11 8 8 8 8 8 8 8 8 8 8 8 8 8 8 8 8 9 11 15 21 27 28 28 28 28 28 28 28 28 28 28 28 27 27 27 28 28 28 28 28 28 28 29 29 28 28 28 28 28 28 28 28 28 28 28 28 28 28 28 29 29 29 29 29 29 29 28 28 28 28 28 28 28 28 28 28 28 27 27 27 27 27 27 27 27 27 27 26 26 26 26 26 26 26 26 26 26 25 25 25 25 25 25 25 26 26 26 25 25 25 25 25 25 25 25 25 25 24 24 24 24 24 24 23 23 23 23 22 22 22 22 22 22 22 22 22 22 22 22 22 22 22 22 22 22 22 22 22 22 22 22 22 22 22 22 22 22 22 22 22 22 22 22 21 21 20 18 17 16 16 15 15 15 15 15 16 16 16 16 16 16 16 15 15 15 14 14 14 14 14 14 14 13 13 13 13 13 13 13 13 13 13 13 13 13 12 12 12 12 12 12 12 12 12 12 12 12 12 12 12 12 12 12 12 12 12 12 12 12 12 12 12 12 11 11 11 11 11 11 11 11 11 11 11 11 11 11 11 11 10 10 10 10 10 9 9 9 9 9.875067
17 17 17 17 17 17 17 17 17 18 18 18 18 18 18 18 18 18 18 18 18 18 18 18 18 18 18 18 18 18 18 18 18 18 18 18 18 18 18 18 18 18 18 18 18 18 18 18 19 19 19 19 19 19 19 19 19 19 19 19 19 19 19 19 19 19 19 19 19 19 19 19 19 19 19 19 19 19 19 19 20 20 20 20 20 20 20 20 20 19 19 19 19 19 19 19 19 19 19 19 19 19 19 19 19 19 19 19 19 19 19 19 19 19 19 19 19 19 19 19 19 19 19 19 19 19 19 19 19 19 19 19 19 19 20 20 20 20 20 20 20 20 20 20 20 20 20 20 20 20 20 20 20 20 20 20 20 20 20 20 21 21 21 21 21 21 21 21 21 21 21 21 21 21 21 21 21 21 21 21 21 21 21 21 21 21 21 21 21 21 21 21 21 21 21 22 22 22 22 22 22 22 22 22 22 22 23 23 23 23 24 24 24 24 24 24 25 25 25 25 25 25 25 25 25 25 25 25 25 25 25 25 25 25 25 25 25 25 25 25 25 25 25 25 25 25 25 25 26 26 26 26 26 26 26 26 26 26 26 27 27 27 27 26 26 26 26 26 26 26 26 26 26 26 26 26 26 26 26 26 26 26 26 26 26 26 26 26 26 26 26 26 26 26 26 26 26 25 25 25 25 25 26 26 26 26 26 26 26 26 26 26 27 27 27 28 29 30 31 32 32 33 34 35 36 36 36 36 36 35 35 34 33 33 32 32 32 32 32 31 31 31 31 31 31 31 31 31 31 31 31 31 31 32 32 32 32 32 32 32 32 33 33 33 33 34 35 36 37 38 39 40 42 43 45 46 46 47 47 47 47 47 47 47 48 47 47 46 45 44 43 42 42 41 39 38 38 37 37 37 36 36 36 36 36 36 36 36 36 36 36 36 37 37 37 37 38 38 39 40 40 41 41 42 42 43 43 43 43 43 43 43 43 43 43 44 44 44 44 44 45 45 46 46 47 47 48 49 50 50 51 52 53 53 54 55 56 56 57 57 57 57 56 56 55 55 55 55 54 54 54 53 53 52 51 49 47 45 44 43 42 41 41 40 40 40 39 39 39 39 38 38 38 38 38 38 37 37 37 36 36 35 35 35 34 34 33 32 32 31 30 30 29 29 29 28 29 29 29 30 30 30 30 31 31 31 31 32 32 33 33 33 33 33 32 32 32 32 33 34 35 35 36 37 37 37 37 37 36 36 36 36 36 37 38 38 39 39 39 39 38 37 36 34 33 31 29 27 25 24 24 24 24 24 24 24 23 23 23 22 22 22 23 24 25 26 26 26 25 24 23 22 21 21 22 22 22 22 23 23 23 23 24 25 27 28 29 30 29 29 27 26 25 25 25 25 26 26 26 26 26 26 25 25 25 25 25 25 25 25 26 26 26 26 26 27 27 28 29 30 30 29 28 26 24 22 20 20 20 21 22 25 28 32 35 37 37 37 37 36 34 31 28 24 18 15 14 14 14 15 16 18 21 24 25 26 28 31 33 35 36 36 37 37 37 38 37 37 37 37 37 37 37 37 37 37 37 37 37 37 37 37 36 36 36 36 34 32 27 23 22 21 21 20 20 19 19 18 14 12 11 10 10 10 10 10 10 10 10 10 10 10 10 12 15 19 23 26 26 26 26 25 24 24 24 24 25 25 26 27 27 28 27 26 25 24 23 22 19 15 11 9 8 8 8 8 8 8 8 8 8 8 8 8 8 8 8 9 12 15 22 27 29 30 29 29 29 29 29 29 29 29 28 28 28 28 28 28 28 28 29 29 29 29 29 29 29 29 29 29 29 29 29 29 28 28 28 28 28 29 29 29 29 29 29 29 29 29 28 28 28 28 28 28 28 28 28 28 28 27 27 27 27 27 27 27 27 27 26 26 26 26 26 26 26 25 25 25 25 25 25 25 25 25 25 25 25 25 25 25 25 25 25 25 25 25 25 24 24 24 24 24 24 24 23 23 23 22 22 22 22 22 22 22 22 22 22 22 22 22 22 22 22 22 22 22 22 22 22 22 22 22 22 22 22 22 22 22 22 22 22 22 22 22 21 20 18 16 15 14 13 13 13 13 13 13 13 14 14 14 14 14 14 14 14 14 13 13 13 13 13 13 13 13 13 13 12 12 12 12 12 12 12 12 12 12 12 12 12 12 12 12 12 12 12 12 12 12 12 12 12 12 12 12 12 12 12 12 12 12 12 12 12 11 11 11 11 11 11 11 11 11 11 11 11 11 11 11 10 10 10 9 9 9 9 9 9 9 9 9.549261
16 17 17 17 17 17 17 17 17 18 18 18 18 18 18 18 18 18 18 18 18 18 18 18 18 18 18 18 18 18 18 18 18 18 18 18 18 18 18 18 18 18 18 18 18 18 18 18 19 19 19 19 19 19 19 19 19 19 19 19 19 19 19 19 19 19 19 19 19 19 19 19 19 19 19 19 19 19 19 19 20 20 20 20 20 20 20 20 20 19 19 19 19 19 19 19 19 19 19 19 19 19 19 19 19 19 19 19 19 19 19 19 19 19 19 19 19 19 19 19 19 19 19 19 19 19 19 19 19 19 19 19 19 20 20 20 20 20 20 20 20 20 20 20 20 20 20 20 20 20 20 20 20 20 20 20 20 21 21 21 21 21 21 21 21 21 21 21 21 21 21 21 21 21 21 21 21 21 21 21 21 21 21 21 21 21 21 21 21 21 21 21 21 21 21 21 22 22 22 22 22 22 22 22 22 22 23 23 23 23 24 24 24 24 24 25 25 25 25 25 25 25 25 25 25 25 25 25 25 25 25 25 25 25 25 25 25 25 25 25 25 25 25 25 25 25 25 25 26 26 26 26 26 26 26 26 26 26 27 27 27 27 27 27 27 27 26 26 26 26 26 26 26 26 26 26 26 26 26 26 26 26 26 26 26 26 26 26 26 26 26 26 26 26 26 26 26 25 25 25 25 26 26 26 26 26 26 26 26 26 26 26 27 27 27 28 29 30 31 31 32 33 34 34 35 36 36 35 35 35 34 33 33 32 32 32 32 32 32 31 31 31 31 31 31 31 31 31 31 31 31 31 31 32 32 32 32 32 32 32 32 32 33 33 33 34 35 35 36 37 38 40 41 43 44 45 46 46 47 47 47 47 47 47 48 47 47 46 45 44 43 43 42 41 39 38 37 37 37 36 36 36 36 36 36 36 36 36 36 36 36 36 37 37 37 37 38 38 39 39 40 41 41 42 42 43 43 43 43 43 43 43 43 43 44 44 44 44 44 44 45 45 45 46 47 47 48 48 49 50 51 52 52 53 54 55 55 56 57 57 57 57 57 56 56 55 55 55 55 54 54 53 52 51 50 49 47 45 44 43 42 41 41 40 40 40 40 39 39 39 38 38 38 38 38 38 37 37 37 36 36 36 35 35 35 35 34 34 33 33 32 32 31 31 31 31 31 31 32 32 33 33 33 33 34 34 34 34 35 35 35 35 35 34 34 34 34 34 35 36 37 38 39 39 39 39 39 39 38 38 37 37 37 38 39 39 39 39 40 39 38 37 36 34 33 31 29 27 25 24 24 24 25 25 25 25 24 24 23 23 22 22 23 24 25 26 26 26 25 24 23 22 21 21 22 22 22 22 23 23 23 23 24 25 27 28 29 29 29 28 26 25 24 24 24 24 25 25 25 26 26 26 25 25 25 25 25 25 25 26 26 26 26 26 27 27 28 29 30 31 31 30 28 26 24 22 20 19 20 21 23 25 29 32 36 38 37 37 37 36 34 32 28 24 18 15 14 14 14 15 16 18 22 24 25 26 29 31 33 35 36 36 37 37 37 37 37 37 37 37 37 37 37 37 37 37 37 37 37 36 36 36 36 36 36 35 34 32 27 24 23 22 21 21 20 20 20 18 15 12 11 10 10 10 10 10 10 10 10 10 10 10 10 11 15 19 23 25 25 25 24 23 23 22 22 22 23 24 25 26 27 28 27 27 26 25 24 23 20 16 12 9 9 8 8 9 9 9 8 8 8 8 8 8 8 8 8 9 12 15 22 27 29 30 30 29 29 29 29 29 29 29 28 28 28 28 28 28 28 29 29 29 29 29 29 29 29 29 29 29 29 29 29 29 29 29 29 29 29 29 29 29 29 29 29 29 29 28 28 28 28 28 28 28 28 28 28 28 28 27 27 27 27 27 27 27 27 26 26 26 26 26 26 26 26 25 25 25 25 25 25 25 25 25 25 25 25 25 25 25 25 25 25 25 25 25 25 24 24 24 24 24 24 24 23 23 23 23 22 22 22 22 22 22 22 22 22 22 22 22 22 22 22 22 22 22 22 22 22 22 22 22 22 22 22 22 22 22 22 22 22 22 21 21 19 18 16 14 14 13 13 13 13 13 13 13 13 13 13 13 13 13 13 13 13 13 13 13 13 13 13 13 13 13 13 13 12 12 12 12 12 12 12 12 12 12 12 12 12 12 12 12 12 12 12 12 12 12 12 12 12 12 12 12 12 12 12 12 12 12 12 12 11 11 11 11 11 11 11 11 11 11 11 11 11 11 11 10 10 10 9 9 9 9 9 9 9 9 9 9.3713455
16 17 17 17 17 17 17 17 17 18 18 18 18 18 18 18 18 18 18 18 18 18 18 18 18 18 18 18 18 18 18 18 18 18 18 18 18 18 18 18 18 18 18 18 18 18 18 18 19 19 19 19 19 19 19 19 19 19 19 19 19 19 19 19 19 19 19 19 19 19 19 19 19 19 19 19 19 19 19 19 20 20 20 20 20 20 20 20 20 20 19 19 19 19 19 19 19 19 19 19 19 19 19 19 19 19 19 19 19 19 19 19 19 19 19 19 19 19 19 19 19 19 19 19 19 19 19 19 19 19 19 19 20 20 20 20 20 20 20 20 20 20 20 20 20 20 20 20 20 20 20 20 20 20 20 21 21 21 21 21 21 21 21 21 21 21 21 21 21 21 21 21 21 21 21 21 21 22 22 22 22 22 22 21 21 21 21 21 21 21 21 21 21 21 21 21 21 22 22 22 22 22 22 22 22 22 23 23 23 24 24 24 24 24 25 25 25 25 25 25 25 25 25 25 25 25 25 25 25 25 25 25 25 25 25 25 25 25 25 25 25 25 25 25 25 25 25 25 26 26 26 26 26 26 26 26 26 27 27 27 27 27 27 27 27 27 27 27 27 26 26 26 26 26 26 26 26 26 26 26 26 26 26 26 26 26 26 26 26 26 26 26 26 26 26 26 26 25 25 25 25 26 26 26 26 26 26 26 26 26 26 27 27 27 27 28 29 29 30 31 32 33 33 34 35 35 35 35 35 34 34 33 33 32 32 32 32 32 32 31 31 31 31 31 31 31 31 31 31 31 31 31 31 31 32 32 32 32 32 32 32 32 32 33 33 34 34 35 36 37 38 39 40 42 44 45 46 46 46 46 47 47 47 47 48 48 47 46 45 44 44 43 42 41 39 38 37 37 37 36 36 36 36 36 36 36 36 36 36 36 36 36 37 37 37 37 38 38 39 39 40 41 41 42 42 43 43 43 43 43 43 44 44 44 44 44 44 44 44 44 45 45 45 46 46 47 48 48 49 50 51 51 52 53 54 54 55 56 57 57 57 57 57 56 56 56 55 55 55 55 54 53 52 51 50 48 47 45 44 43 42 41 41 40 40 40 40 39 39 39 38 38 38 38 38 37 37 37 37 36 36 36 36 36 36 35 35 35 34 34 34 33 33 33 33 33 34 34 35 35 35 36 36 36 36 36 37 37 37 37 37 37 36 36 36 36 36 36 37 38 39 40 41 41 42 42 41 41 40 39 39 38 38 39 39 40 40 40 40 39 39 37 36 35 33 32 29 27 26 25 25 25 25 26 26 26 25 25 24 23 23 23 23 24 26 27 27 26 25 24 23 22 21 21 22 22 22 22 23 23 23 24 24 25 27 28 28 28 28 27 25 24 23 23 23 23 23 24 24 25 25 26 25 25 25 25 25 25 25 26 26 26 26 27 27 28 29 30 31 32 32 31 29 27 24 22 20 19 20 21 23 26 29 33 36 38 38 38 38 37 35 32 29 24 19 15 14 14 14 14 16 18 22 24 25 26 29 31 34 35 36 36 37 37 37 37 37 37 37 37 37 37 37 37 37 37 37 36 36 36 36 36 36 36 35 35 34 32 27 24 23 22 22 21 21 21 21 19 15 12 11 10 10 10 10 10 10 10 10 10 10 10 10 11 15 18 22 25 24 24 23 22 21 21 21 21 22 23 24 25 26 27 27 27 26 26 25 24 20 17 12 9 9 8 9 9 9 9 8 8 8 8 8 8 8 8 8 9 12 15 22 27 29 30 30 30 30 29 29 29 29 29 28 28 28 28 28 28 29 29 29 29 29 29 29 29 29 29 29 29 29 29 29 29 29 29 29 29 29 29 29 29 29 29 29 29 29 28 28 28 28 28 28 28 28 28 28 28 28 28 27 27 27 27 27 27 27 26 26 26 26 26 26 26 25 25 25 25 25 25 25 25 25 25 25 25 25 25 25 25 25 25 25 25 25 25 25 24 24 24 24 24 24 24 23 23 23 23 22 22 22 22 22 22 22 22 22 22 22 22 22 22 22 22 22 22 22 22 22 22 22 22 22 22 22 22 22 22 22 22 22 22 21 20 18 16 15 13 12 12 12 12 12 12 13 13 13 13 13 13 13 13 13 13 13 13 13 12 12 12 12 13 13 12 12 12 12 12 12 12 12 12 12 12 12 12 12 12 12 12 12 12 12 12 12 12 12 12 12 12 12 12 12 12 12 12 12 12 12 12 12 12 11 11 11 11 11 11 11 11 11 11 11 11 11 11 11 10 10 9 9 9 9 9 9 9 9 9 9 9.193432
16 16 17 17 17 17 17 17 17 18 18 18 18 18 18 18 18 18 18 18 18 18 18 18 18 18 18 18 18 18 18 18 18 18 18 18 18 18 18 18 18 18 18 18 18 18 18 18 19 19 19 19 19 19 19 19 19 19 19 19 19 19 19 19 19 19 19 19 19 19 19 19 19 19 19 19 19 19 19 19 20 20 20 20 20 20 20 20 20 20 20 20 19 19 19 19 19 19 19 19 20 20 20 20 20 20 19 19 19 19 19 19 19 19 19 19 19 19 19 19 19 19 19 19 19 19 19 19 19 19 19 19 20 20 20 20 20 20 20 20 20 20 20 20 20 20 20 20 20 20 20 20 20 21 21 21 21 21 21 21 21 21 21 21 21 21 21 21 21 21 21 21 21 21 22 22 22 22 22 22 22 22 22 22 22 22 22 22 22 22 22 22 22 22 22 22 22 22 22 22 22 22 22 22 22 23 23 23 23 24 24 24 24 25 25 25 25 25 25 25 25 25 25 25 25 25 25 25 25 25 25 25 25 25 25 25 25 25 25 25 25 25 25 25 25 25 26 26 26 26 26 26 26 26 26 26 27 27 27 27 27 27 27 27 27 27 27 27 27 27 27 27 26 26 26 26 26 26 26 26 26 26 26 26 26 26 26 26 26 26 26 26 26 26 26 26 26 26 26 26 26 26 26 26 26 26 26 26 26 26 26 27 27 27 28 28 29 30 30 31 32 33 33 34 34 35 35 34 34 34 33 33 32 32 32 32 32 32 31 31 31 31 31 31 31 31 31 31 31 31 31 31 31 31 32 32 32 32 32 32 32 32 32 33 33 34 34 35 36 37 38 39 40 42 44 45 45 46 46 46 46 47 47 47 48 48 47 46 46 45 44 43 42 41 39 38 37 37 36 36 36 36 36 36 36 36 36 36 36 36 36 36 36 37 37 37 37 38 38 39 39 40 41 41 42 42 43 43 43 43 43 44 44 44 44 44 44 44 44 44 44 45 45 46 46 47 47 48 49 50 50 51 52 53 53 54 55 56 56 57 57 57 57 57 56 56 56 56 55 55 54 53 52 51 49 48 47 45 44 43 42 42 41 41 40 40 40 39 39 39 38 38 38 38 38 37 37 37 37 36 36 36 36 36 36 36 36 36 36 36 36 35 35 36 36 36 37 37 37 38 38 38 38 39 39 39 39 39 39 39 39 38 38 37 37 37 37 38 39 40 42 42 43 43 43 43 43 43 42 41 40 39 39 40 40 40 40 40 40 40 39 38 36 35 34 32 30 28 26 25 25 25 26 26 26 26 26 25 24 24 23 23 23 24 26 27 27 26 25 24 23 22 21 21 22 22 22 23 23 23 23 24 25 26 27 28 28 28 27 26 25 24 23 23 23 23 23 23 24 24 25 25 25 25 25 25 25 25 26 26 26 27 27 27 28 29 30 31 32 33 32 31 29 27 24 22 20 19 20 21 23 26 29 33 37 39 38 38 38 37 35 33 29 25 19 15 14 14 14 14 16 18 22 24 25 26 29 31 34 36 36 37 37 37 37 37 37 37 37 37 37 37 36 36 36 36 36 36 36 36 36 36 35 35 35 35 34 32 28 25 24 23 22 22 22 21 21 20 15 12 11 10 10 10 10 10 10 10 10 10 10 10 10 11 14 17 21 24 23 23 22 21 20 20 20 20 21 21 23 24 25 27 27 27 27 26 26 25 21 17 13 9 9 8 9 9 9 9 8 8 8 8 8 8 8 8 8 9 12 16 22 27 29 30 30 30 29 29 29 29 29 29 28 28 28 28 28 29 29 29 29 29 29 29 29 29 29 29 29 29 29 29 29 29 29 29 29 29 29 29 29 29 29 29 29 28 28 28 28 28 28 28 28 28 28 28 28 28 28 28 27 27 27 27 27 27 27 26 26 26 26 26 26 26 26 25 25 25 25 25 25 25 25 25 25 25 25 25 25 25 25 24 24 24 24 24 24 23 23 23 24 24 24 24 23 23 23 23 23 23 22 22 22 22 22 22 22 22 22 22 22 22 22 22 22 22 22 22 22 22 22 22 22 22 22 22 22 22 22 22 21 21 20 19 17 15 14 12 12 12 12 12 12 12 12 12 13 13 13 13 13 13 12 12 12 12 12 12 12 12 12 12 12 12 12 12 12 12 12 12 12 12 12 12 12 12 12 12 12 12 12 12 12 12 12 12 12 12 12 12 12 12 12 12 12 12 12 12 12 12 12 11 11 11 11 11 11 11 11 11 11 11 11 11 11 11 10 10 10 9 9 9 9 9 9 9 9 9 9 9.115569
16 16 17 17 17 17 17 17 17 18 18 18 18 18 18 18 18 18 18 18 18 18 18 18 18 18 18 18 18 18 18 18 18 18 18 18 18 18 18 18 18 18 18 18 18 18 18 18 19 19 19 19 19 19 19 19 19 19 19 19 19 19 19 19 19 19 19 19 19 19 19 19 19 19 19 19 19 19 19 19 20 20 20 20 20 20 20 20 20 20 20 20 20 20 19 19 19 20 20 20 20 20 20 20 20 20 20 19 19 19 19 19 19 19 19 19 19 19 19 19 19 19 19 19 19 19 19 19 19 19 19 20 20 20 20 20 20 20 20 20 20 20 20 20 20 20 20 20 20 20 20 20 21 21 21 21 21 21 21 21 21 21 21 21 21 21 21 21 21 21 21 21 22 22 22 22 22 22 22 22 22 22 22 22 22 22 22 22 22 22 22 22 22 22 22 22 22 22 22 22 22 22 22 22 22 23 23 23 24 24 24 24 24 25 25 25 25 25 25 25 25 25 25 25 25 25 25 25 25 25 25 25 25 25 25 25 25 25 25 25 25 25 25 25 25 26 26 26 26 26 26 26 26 26 26 27 27 27 27 27 27 27 27 27 27 27 27 27 27 27 27 27 27 27 26 26 26 26 26 26 26 26 26 26 26 26 26 26 26 26 26 26 26 26 26 26 26 26 26 26 26 26 26 26 26 26 26 26 26 26 26 27 27 27 28 28 29 30 30 31 32 32 33 34 34 34 34 34 34 33 33 33 32 32 32 32 32 32 31 31 31 31 31 31 31 31 31 31 31 31 31 31 31 31 32 32 32 32 32 32 32 32 32 33 33 34 34 35 36 36 37 39 40 41 43 44 45 46 46 46 46 47 47 47 47 47 47 47 46 45 44 43 42 41 40 38 37 37 36 36 36 36 36 36 36 36 36 36 36 36 36 36 36 37 37 37 37 38 38 38 39 40 40 41 41 42 42 43 43 43 43 43 44 44 44 44 44 44 44 44 44 45 45 46 46 47 47 48 49 49 50 51 52 52 53 54 55 55 56 57 57 57 57 57 57 56 56 56 56 55 54 53 52 50 49 48 47 46 45 44 43 42 41 41 41 40 40 39 39 39 38 38 38 38 38 38 37 37 37 37 36 36 36 36 37 37 37 37 37 38 37 38 38 38 38 39 39 40 40 41 41 41 41 41 41 41 41 41 41 41 41 40 39 39 38 38 39 40 41 42 44 44 45 45 45 45 45 44 43 42 41 41 40 40 41 41 41 41 40 40 39 38 36 35 34 32 30 28 26 25 25 26 26 27 27 27 26 26 25 24 23 23 24 25 26 27 27 26 26 24 23 22 21 21 22 22 22 23 23 23 24 24 25 26 27 27 28 27 27 26 24 24 23 23 22 22 22 23 23 24 24 25 25 25 25 25 25 26 26 26 27 27 27 28 29 29 31 32 33 33 33 32 29 27 24 21 20 19 19 21 23 26 30 33 37 39 39 39 39 38 36 33 30 25 19 15 14 14 13 14 16 19 22 24 25 26 29 31 34 36 36 37 37 37 37 37 37 37 37 37 37 36 36 36 36 36 36 36 36 36 36 35 35 35 35 34 34 32 28 26 24 23 23 22 22 22 22 20 16 12 11 10 10 10 10 10 10 10 10 10 10 10 10 11 14 17 20 23 22 22 21 20 19 19 19 19 19 20 21 23 25 26 27 27 27 27 27 25 22 18 13 9 9 8 9 9 9 9 8 8 8 8 8 8 8 8 8 9 12 16 21 27 29 30 30 30 29 29 29 29 29 29 28 28 28 28 28 29 29 29 29 29 29 29 29 29 29 29 29 29 29 29 29 29 29 29 29 29 29 29 29 29 29 29 28 28 28 28 28 28 28 28 28 28 28 28 28 28 28 27 27 27 27 27 27 27 26 26 26 26 26 26 26 26 26 25 25 25 25 25 25 25 25 25 26 26 26 25 25 25 24 24 23 23 23 22 22 22 23 23 23 23 23 24 23 23 23 23 23 23 23 22 22 22 22 22 22 22 22 22 22 22 22 21 21 21 21 21 21 21 21 22 22 22 22 22 22 22 22 22 21 21 20 18 16 14 13 12 12 12 12 12 12 12 12 12 12 12 13 13 12 12 12 12 12 12 12 12 12 12 12 12 12 12 12 12 12 12 12 12 12 12 12 12 12 12 12 12 12 12 12 12 12 12 12 12 12 12 12 12 12 12 12 12 12 12 12 12 12 11 11 11 11 11 11 11 11 11 11 11 11 11 11 11 11 11 10 10 9 9 9 9 9 9 9 9 9 8 9 9.037706
16 16 16 17 17 17 17 17 17 18 18 18 18 18 18 18 18 18 18 18 18 18 18 18 18 18 18 18 18 18 18 18 18 18 18 18 18 18 18 18 18 18 18 18 18 18 18 19 19 19 19 19 19 19 19 19 19 19 19 19 19 19 19 19 19 19 19 19 19 19 19 19 19 19 19 19 19 19 19 19 20 20 20 20 20 20 20 20 20 20 20 20 20 20 20 20 20 20 20 20 20 20 20 20 20 20 20 20 20 19 19 19 19 19 19 19 19 19 19 19 19 19 19 19 19 19 19 19 19 20 20 20 20 20 20 20 20 20 20 20 20 20 20 20 20 20 20 20 20 20 21 21 21 21 21 21 21 21 21 21 21 21 21 21 21 21 21 21 21 22 22 22 22 22 22 22 22 22 22 22 22 22 22 22 22 22 22 22 22 22 22 22 22 22 22 22 22 22 22 22 22 22 22 22 23 23 23 23 24 24 24 24 25 25 25 25 25 25 25 25 25 25 25 25 25 25 25 25 25 25 25 25 25 25 25 25 25 25 25 25 25 25 25 26 26 26 26 26 26 26 26 26 26 26 27 27 27 27 27 27 27 27 27 27 27 27 27 27 27 27 27 27 27 27 27 27 27 26 26 26 26 26 26 26 26 26 26 26 26 26 26 26 26 26 26 26 26 26 26 26 26 26 26 26 26 26 26 26 26 26 27 27 27 28 28 29 29 30 30 31 32 32 33 33 34 34 34 34 34 33 33 33 32 32 32 32 32 31 31 31 31 31 31 31 31 31 31 31 31 31 31 31 31 31 32 32 32 32 32 32 32 32 32 33 33 34 34 35 36 36 37 38 40 41 43 44 45 45 46 46 46 46 47 47 47 47 47 47 46 45 44 43 42 41 40 38 37 37 36 36 36 36 36 36 36 36 36 36 36 36 36 36 36 36 36 37 37 37 37 38 38 39 39 40 40 41 41 42 42 43 43 43 43 43 43 43 44 44 44 44 44 45 45 46 46 47 47 48 48 49 50 51 51 52 53 54 54 55 56 57 57 57 57 57 57 57 56 56 56 55 54 53 52 50 49 48 47 46 45 44 43 43 42 41 41 41 40 40 39 39 39 38 38 38 38 38 37 37 37 37 37 37 37 37 37 38 38 39 39 39 39 40 40 40 41 41 42 42 43 43 43 43 43 43 43 43 42 42 42 42 42 41 40 40 39 39 40 41 42 43 45 46 46 47 47 47 46 46 45 44 42 42 41 41 41 41 41 41 41 40 39 38 37 36 34 33 31 29 27 26 26 26 26 27 27 27 27 26 25 25 24 23 24 25 26 27 27 27 26 24 23 22 21 21 22 22 23 23 24 24 24 25 25 26 27 27 27 27 26 25 24 24 23 23 23 22 22 23 23 23 24 25 25 26 26 26 26 26 27 27 28 28 28 29 29 30 31 33 34 34 34 32 29 27 24 21 19 19 19 20 23 26 30 34 37 39 39 39 39 38 36 34 30 26 19 15 14 13 13 14 16 19 22 24 25 26 29 32 34 36 36 37 37 37 37 37 37 37 37 37 36 36 36 36 36 36 36 36 36 36 36 36 35 35 35 34 34 32 29 27 25 24 23 23 23 22 22 20 16 12 11 10 10 10 10 10 10 10 10 10 10 10 10 11 14 17 20 22 22 21 20 19 19 18 18 18 19 19 20 21 23 25 26 27 27 27 27 26 23 19 14 10 9 8 9 9 9 9 8 8 9 9 8 8 8 8 8 9 12 16 22 27 29 30 30 30 29 29 29 29 29 29 28 28 28 28 28 29 29 29 29 29 29 29 29 29 29 29 29 29 29 29 29 29 29 29 29 29 29 29 29 29 29 29 28 28 28 28 28 28 28 28 28 28 28 28 28 27 27 27 27 27 27 27 27 26 26 26 26 26 26 26 26 25 25 25 25 25 25 24 24 24 23 23 23 23 22 22 21 21 21 20 20 20 20 19 20 20 20 20 20 21 21 22 22 22 22 22 22 22 22 22 22 22 22 22 22 22 22 22 21 21 21 21 21 21 21 21 21 21 21 21 22 22 22 22 22 22 21 21 21 20 19 17 15 14 13 12 12 12 12 12 12 12 12 12 12 12 12 12 12 12 12 12 12 12 12 12 12 12 12 12 12 12 12 12 12 12 12 12 12 12 12 12 12 12 12 12 12 12 12 12 12 12 12 12 12 12 12 12 12 12 12 12 12 12 12 12 11 11 11 11 11 11 11 11 11 11 11 11 11 11 11 11 11 10 10 10 9 9 9 9 9 9 9 9 9 9 9 9.009312
16 16 16 17 17 17 17 17 17 18 18 18 18 18 18 18 18 18 18 18 18 18 18 18 18 18 18 18 18 18 18 18 18 18 18 18 18 18 18 18 18 18 18 18 18 18 19 19 19 19 19 19 19 19 19 19 19 19 19 19 19 19 19 19 19 19 19 19 19 19 19 19 19 19 19 19 19 19 19 20 20 20 20 20 20 20 20 20 20 20 20 20 20 20 20 20 20 20 20 20 20 20 20 20 20 20 20 20 20 20 20 20 20 19 19 19 19 19 19 19 19 19 19 19 19 19 19 19 20 20 20 20 20 20 20 20 20 20 20 20 20 20 20 20 20 20 20 20 20 21 21 21 21 21 21 21 21 21 21 21 21 21 21 21 21 21 22 22 22 22 22 22 22 22 22 22 22 22 22 22 22 22 22 22 22 22 22 22 22 22 22 22 22 22 22 22 22 22 22 22 22 22 22 22 23 23 23 24 24 24 24 25 25 25 25 25 25 25 25 25 25 25 25 25 25 25 25 25 25 25 25 25 25 25 25 25 25 25 25 25 25 26 26 26 26 26 26 26 26 26 26 26 26 27 27 27 27 27 27 27 27 27 27 27 27 27 27 27 27 27 27 27 27 27 27 27 27 27 26 26 26 26 26 26 26 26 26 26 26 26 26 26 26 26 26 26 26 26 26 26 26 26 26 26 26 26 26 26 26 27 27 27 28 28 29 29 30 30 31 31 32 32 33 33 33 33 33 33 33 33 33 33 32 32 32 32 32 31 31 31 31 31 31 31 31 31 31 31 31 31 31 31 31 31 32 32 32 32 32 32 32 32 32 33 33 33 34 35 35 36 37 38 40 41 43 44 45 45 45 46 46 46 46 47 47 47 47 46 46 45 44 43 42 41 40 38 37 37 36 36 36 36 36 36 36 36 36 36 36 36 36 36 36 36 36 36 36 37 37 37 38 38 38 39 39 40 40 41 41 42 42 43 43 43 43 43 43 44 44 44 44 45 45 46 46 47 47 48 48 49 50 50 51 52 53 53 54 55 56 56 57 57 57 57 57 57 57 56 56 55 54 53 51 50 49 48 47 47 46 45 44 43 42 42 41 41 40 40 39 39 39 39 38 38 38 38 37 37 37 37 37 37 37 37 38 38 39 40 41 41 41 42 42 43 43 44 44 45 45 45 45 45 45 44 44 44 44 44 44 43 43 42 41 41 40 40 41 42 43 45 46 47 48 48 48 48 48 47 46 45 44 43 42 42 42 42 42 42 41 40 40 39 37 36 35 33 31 29 27 26 26 26 27 27 28 28 27 27 26 25 24 24 24 25 26 27 27 27 26 25 23 21 21 21 22 22 23 23 24 24 25 25 26 26 27 27 27 26 26 25 24 23 23 23 23 23 22 22 23 23 24 25 26 26 26 26 27 27 28 28 28 29 29 29 30 31 32 33 34 35 34 33 29 26 24 21 19 18 19 20 23 26 30 34 37 40 40 40 39 39 37 34 31 26 20 15 14 13 13 14 17 19 22 24 25 26 29 32 34 36 37 37 37 38 38 38 37 37 37 37 36 36 36 36 36 36 36 36 36 36 36 36 35 35 35 34 34 33 30 28 26 24 24 23 23 23 22 20 15 12 11 10 10 10 10 10 10 10 10 10 10 10 10 11 14 16 20 22 21 21 20 19 18 18 18 18 18 18 19 20 22 24 25 26 27 27 27 26 23 20 14 10 9 8 9 9 9 8 8 8 9 9 8 8 8 8 8 9 12 16 22 27 29 30 30 30 29 29 29 29 29 29 28 28 28 28 28 29 29 29 29 29 29 30 30 30 29 29 29 29 29 29 29 29 29 29 29 29 29 29 29 29 29 29 28 28 28 28 28 28 28 28 28 28 28 28 27 27 27 27 27 27 27 27 26 26 26 26 25 25 25 25 25 25 25 25 25 24 24 23 23 22 22 21 20 20 19 18 18 17 17 17 16 16 16 17 17 17 17 17 18 18 19 19 20 21 21 22 22 22 22 22 22 22 22 22 22 22 22 21 21 21 21 21 21 21 21 21 21 21 21 21 21 22 22 22 21 21 21 21 20 19 18 16 14 13 12 12 12 12 12 12 12 12 12 12 12 12 12 12 12 12 12 12 12 12 12 12 12 12 12 12 12 12 12 12 12 12 12 12 12 12 12 12 12 12 12 12 12 12 12 12 12 12 12 12 12 12 12 12 12 12 12 12 12 12 11 11 11 11 11 11 11 11 11 11 11 11 11 11 11 11 11 11 10 10 10 9 9 9 9 9 9 9 9 9 9 9 9 8.980918
15 16 16 17 17 17 17 17 17 18 18 18 18 18 18 18 18 18 18 18 18 18 18 18 18 18 18 18 18 18 18 18 18 18 18 18 18 18 18 18 18 18 18 18 18 18 19 19 19 19 19 19 19 19 19 19 19 19 19 19 19 19 19 19 19 19 19 19 19 19 19 19 19 19 19 19 19 19 20 20 20 20 20 20 20 20 20 20 20 20 20 20 20 20 20 20 20 20 20 20 20 20 20 20 20 20 20 20 20 20 20 20 20 20 20 20 19 19 19 19 19 19 19 19 19 20 20 20 20 20 20 20 20 20 20 20 20 20 20 20 20 20 20 20 20 20 20 20 21 21 21 21 21 21 21 21 21 21 21 21 21 21 21 22 22 22 22 22 22 22 22 22 22 22 22 22 22 22 22 22 22 22 22 22 22 22 22 22 22 22 22 22 22 22 22 22 22 22 22 22 22 22 22 23 23 23 24 24 24 24 25 25 25 25 25 25 25 25 25 25 25 25 25 25 25 25 25 25 25 25 25 25 25 25 25 25 25 25 25 25 26 26 26 26 26 26 26 26 26 26 26 26 27 27 27 27 27 27 27 27 27 27 27 27 27 27 27 27 27 27 27 27 27 27 27 27 27 27 27 27 26 26 26 26 26 26 26 26 26 26 26 26 26 26 26 26 26 26 26 26 26 26 26 26 26 26 26 26 27 27 27 28 28 28 29 29 30 30 31 31 32 32 32 33 33 33 33 33 33 33 33 32 32 32 32 32 32 31 31 31 31 31 31 31 31 31 31 31 31 31 31 31 31 31 32 32 32 32 32 32 32 32 32 33 33 33 34 35 35 36 37 38 40 41 43 44 44 45 45 45 46 46 46 47 47 47 47 46 46 45 44 43 42 41 40 38 37 37 36 36 36 36 36 36 36 36 36 36 36 36 36 36 36 36 36 36 36 36 37 37 37 37 38 38 38 39 39 40 40 41 41 42 42 43 43 43 43 43 44 44 44 45 45 45 46 46 47 47 48 49 49 50 51 52 52 53 54 55 55 56 57 57 57 57 57 57 57 57 56 55 54 53 52 50 50 49 48 47 46 45 45 44 43 43 42 42 41 41 40 39 39 39 39 39 38 38 38 38 37 37 37 37 38 38 39 39 40 41 42 43 43 44 44 45 45 46 46 46 46 46 46 46 46 46 45 45 45 45 45 44 44 43 42 41 41 41 41 42 44 46 47 48 49 49 49 49 49 48 47 46 45 43 43 43 43 43 42 42 42 41 40 39 38 37 36 34 32 30 28 27 26 26 27 27 28 28 28 27 26 26 25 24 25 25 27 27 27 27 26 25 23 21 21 21 22 22 23 24 24 25 25 25 26 26 27 27 26 26 25 25 24 24 23 23 23 23 23 23 23 23 24 25 26 27 27 27 28 28 29 29 29 30 30 30 31 32 33 34 35 35 35 33 29 26 23 21 19 18 18 20 23 26 30 34 37 40 40 40 40 39 37 35 31 27 20 16 14 13 13 14 17 20 22 24 25 26 29 32 35 37 37 37 38 38 38 38 38 37 37 37 36 36 36 36 36 36 36 36 36 36 36 36 36 35 35 34 34 33 31 29 27 25 25 24 23 23 22 20 15 11 10 10 10 10 10 10 10 10 10 10 10 10 10 11 13 16 19 21 21 21 19 18 18 18 18 17 17 18 18 19 21 22 24 25 26 27 27 26 24 20 15 10 9 8 9 9 9 9 8 8 9 9 8 8 8 8 8 9 12 16 22 27 29 30 30 30 29 29 29 29 29 29 28 28 28 28 28 29 29 29 29 29 29 30 30 30 29 29 29 29 29 29 29 29 29 29 29 29 29 29 29 29 29 29 29 28 28 28 28 28 28 28 28 27 27 27 27 26 26 26 26 26 25 25 25 25 24 24 24 24 24 23 23 23 23 23 22 22 21 21 20 20 19 19 18 18 17 17 17 17 16 16 16 16 16 16 16 16 17 17 17 17 17 18 18 19 19 20 20 20 21 21 21 21 22 22 22 22 22 21 21 21 21 21 21 21 21 21 21 21 21 21 21 21 21 21 21 20 20 19 18 17 16 15 13 12 12 12 12 12 12 12 12 12 12 12 12 12 12 12 12 12 12 12 12 12 12 12 12 12 12 12 12 12 12 12 12 12 12 12 12 12 12 12 12 12 12 12 12 12 12 12 12 12 12 12 12 12 12 12 12 11 11 11 11 11 11 11 11 11 11 11 11 11 11 11 11 11 11 11 11 11 11 10 10 10 9 9 9 9 9 9 9 9 9 9 9 9 9 8.971143
15 16 16 16 17 17 17 17 17 18 18 18 18 18 18 18 18 18 18 18 18 18 18 18 18 18 18 18 18 18 18 18 18 18 18 18 18 18 18 18 18 18 18 18 18 19 19 19 19 19 19 19 19 19 19 19 19 19 19 19 19 19 19 19 19 19 19 19 19 19 19 19 19 19 19 19 19 19 20 20 20 20 20 20 20 20 20 20 20 20 20 20 20 20 20 20 20 20 20 20 20 20 20 20 20 20 20 20 20 20 20 20 20 20 20 20 20 20 20 20 20 20 20 20 20 20 20 20 20 20 20 20 20 20 20 20 20 20 20 20 20 20 20 20 20 20 20 21 21 21 21 21 21 21 21 21 21 21 21 21 22 22 22 22 22 22 22 22 22 22 22 22 22 22 22 22 22 22 22 22 22 22 22 22 22 22 22 22 22 22 22 22 22 22 22 22 22 22 22 22 22 22 22 23 23 23 24 24 24 25 25 25 25 25 25 25 25 25 25 26 26 26 26 26 26 25 25 25 25 25 25 25 25 25 25 25 25 25 26 26 26 26 26 26 26 26 26 26 26 26 26 26 27 27 27 27 27 27 27 27 27 27 27 27 27 27 27 27 27 27 27 27 27 27 27 27 27 27 27 27 27 27 27 26 26 26 26 26 26 26 26 26 26 26 26 26 26 26 26 26 26 26 26 26 26 26 26 27 27 27 28 28 28 29 29 30 30 31 31 31 31 32 32 32 32 33 33 33 33 33 33 32 32 32 32 32 32 31 31 31 31 31 31 31 31 31 31 31 31 31 31 31 31 32 32 32 32 32 32 32 32 32 32 33 33 33 34 35 35 36 37 38 40 41 43 44 44 45 45 45 46 46 46 46 47 47 47 46 46 45 44 43 42 41 40 39 37 37 36 36 36 36 36 36 36 36 36 36 36 36 36 36 36 36 36 36 36 36 36 36 37 37 37 37 38 38 38 39 39 40 41 41 42 42 42 43 43 43 43 44 44 44 45 45 46 46 47 47 48 49 49 50 51 52 52 53 54 54 55 56 56 57 57 57 57 57 57 57 56 55 54 53 52 51 50 49 48 48 47 46 45 45 44 44 43 42 42 41 40 40 39 39 39 39 39 38 38 38 38 38 38 38 38 39 39 40 42 43 44 44 45 45 46 47 47 47 48 48 48 48 48 47 47 47 46 46 46 46 46 45 45 44 43 42 42 42 42 43 45 46 48 49 50 50 50 50 50 50 49 47 45 44 44 43 43 43 43 43 42 41 41 40 39 38 36 35 33 31 29 27 27 27 27 28 28 29 28 28 27 26 25 25 25 26 27 28 28 27 26 25 23 21 21 21 22 23 23 24 25 25 25 26 26 27 27 26 26 25 25 24 24 24 23 23 23 23 23 23 23 23 24 25 27 28 28 28 29 29 30 30 30 30 31 31 31 32 33 35 36 36 35 33 29 26 23 21 19 18 18 19 22 26 30 34 38 40 40 40 40 40 38 35 32 27 21 16 14 13 13 14 17 20 22 24 25 26 29 32 35 37 37 37 38 38 38 38 38 37 37 37 36 36 36 36 36 36 36 36 36 36 36 36 36 35 35 34 34 33 32 30 28 26 25 24 24 23 22 20 15 11 10 10 10 10 10 10 10 10 10 10 10 10 10 11 13 16 19 21 21 21 19 18 18 18 17 17 17 17 17 18 19 21 23 24 25 26 27 27 24 21 15 11 9 8 9 9 9 9 8 8 9 9 9 8 8 8 8 9 13 17 23 28 29 30 30 30 29 29 29 29 29 29 28 28 28 28 28 29 29 29 29 29 30 30 30 30 29 29 29 29 29 29 29 29 29 29 29 29 29 29 29 29 29 29 29 29 28 28 28 28 28 28 27 27 26 26 26 25 25 25 24 24 24 24 23 23 23 22 22 22 22 22 21 21 21 21 20 19 19 18 18 17 17 16 16 16 16 16 16 16 16 16 16 16 16 16 16 16 16 16 16 16 16 16 17 17 17 18 18 19 19 20 20 21 21 21 21 22 21 21 21 21 21 21 21 21 21 21 21 21 21 21 21 21 21 20 20 19 19 18 17 15 14 13 12 12 12 12 12 12 12 12 12 12 12 12 12 12 12 12 12 12 12 12 12 12 12 12 12 12 12 12 12 12 12 12 12 12 12 12 12 12 12 12 12 12 12 12 12 12 12 12 12 12 12 12 12 12 11 11 11 11 11 11 11 11 11 11 11 11 11 11 11 11 11 11 11 11 11 11 11 11 10 10 10 9 9 9 9 9 9 9 9 9 9 9 9 9 9 8.961369
15 16 16 16 17 17 17 17 17 18 18 18 18 18 18 18 18 18 18 18 18 18 18 18 18 18 18 18 18 18 18 18 18 18 18 18 18 18 18 18 18 18 18 18 18 19 19 19 19 19 19 19 19 19 19 19 19 19 19 19 19 19 19 19 19 19 19 19 19 19 19 19 19 19 19 19 19 20 20 20 20 20 20 20 20 20 20 20 20 20 20 20 20 20 20 20 20 20 20 20 20 20 20 20 20 20 20 20 20 20 20 20 20 20 20 20 20 20 20 20 20 20 20 20 20 20 20 20 20 20 20 20 20 20 20 20 20 20 20 20 20 20 20 20 20 20 20 21 21 21 21 21 21 21 21 21 21 21 22 22 22 22 22 22 22 22 22 22 22 22 22 22 22 22 22 22 22 22 22 22 22 22 22 22 22 22 22 22 22 22 22 22 22 22 22 22 22 22 22 22 22 22 23 23 23 24 24 24 25 25 25 25 25 25 25 25 25 26 26 26 26 26 26 26 26 26 25 25 25 25 25 25 25 25 25 25 26 26 26 26 26 26 26 26 26 26 26 26 26 26 26 27 27 27 27 27 27 27 27 27 27 27 27 27 27 27 27 27 27 27 27 27 27 27 27 27 27 27 27 27 27 27 27 27 27 26 26 26 26 26 26 26 26 26 26 26 26 26 26 26 26 26 26 26 26 26 27 27 27 28 28 29 29 29 30 30 31 31 31 31 32 32 32 32 32 32 33 33 33 33 32 32 32 32 32 32 32 31 31 31 31 31 31 31 31 31 31 31 31 31 31 31 31 32 32 32 32 32 32 32 32 32 32 33 33 33 34 35 35 36 37 38 40 41 43 44 44 45 45 45 46 46 46 46 47 47 47 46 45 45 44 43 42 41 40 39 37 37 36 36 36 36 36 36 36 36 36 36 36 36 36 36 36 36 36 36 36 36 36 36 36 37 37 37 37 37 38 38 39 39 40 40 41 41 42 42 43 43 43 44 44 44 45 45 46 46 47 47 48 48 49 50 51 51 52 53 54 54 55 56 56 57 57 57 58 58 57 57 57 56 55 53 52 51 51 50 49 49 48 47 47 46 45 45 44 44 43 42 41 41 40 40 40 39 39 39 39 38 38 38 38 38 39 40 41 42 43 44 45 46 46 47 48 48 49 49 49 49 49 49 49 48 48 48 47 47 47 47 47 46 46 45 44 43 43 42 43 44 45 47 49 50 50 51 51 51 51 50 49 48 46 45 44 44 44 44 44 43 43 42 41 41 40 39 37 36 34 32 30 28 28 27 28 28 29 29 29 28 28 27 26 25 26 26 27 28 28 28 26 25 23 21 21 21 22 23 24 24 25 26 26 26 26 27 27 26 26 25 24 24 24 24 24 23 23 23 23 23 23 23 24 26 28 29 29 30 30 30 30 31 31 31 31 31 32 33 34 35 36 37 35 33 29 26 23 21 19 18 18 19 22 25 30 34 38 40 41 41 41 40 38 36 32 28 22 17 14 13 13 14 17 20 22 24 25 26 29 32 35 37 37 37 38 38 38 38 38 37 37 37 36 36 36 36 36 36 36 36 36 36 36 36 35 35 35 34 34 33 32 30 28 27 26 25 24 23 22 20 15 11 10 10 10 10 10 10 10 10 10 10 10 10 10 11 13 15 18 20 20 20 19 18 18 17 17 17 17 17 17 17 18 20 22 23 25 26 26 26 24 21 16 11 9 8 9 9 9 9 9 9 9 9 9 9 8 8 8 9 13 17 23 28 29 30 30 30 29 29 29 29 29 29 28 28 28 28 28 29 29 29 29 29 29 30 30 29 29 29 29 29 29 29 29 29 28 28 28 28 28 28 29 29 29 29 28 28 28 28 28 27 27 26 25 25 24 23 23 23 22 22 22 22 22 22 21 21 21 21 21 20 20 20 20 20 19 19 19 18 18 17 17 17 17 16 16 16 16 16 16 16 16 16 16 16 16 16 16 16 16 16 16 16 16 16 16 16 17 17 17 18 18 19 19 19 20 20 21 21 21 21 21 21 21 21 20 20 20 20 20 20 20 20 20 19 19 18 18 17 16 15 14 14 13 12 12 12 12 12 12 12 12 12 12 12 12 12 12 12 12 12 12 12 12 12 12 12 12 12 12 12 12 12 12 12 12 12 12 12 12 12 12 12 12 12 12 12 12 12 12 12 12 12 12 11 11 11 11 11 11 11 11 11 11 11 11 11 11 11 11 11 11 11 11 11 11 11 11 11 11 11 11 10 10 10 10 9 9 9 9 9 9 9 9 9 9 9 9 9 9 8.98402
15 15 16 16 17 17 17 17 18 18 18 18 18 18 18 18 18 18 18 18 18 18 18 18 18 18 18 18 18 18 18 18 18 18 18 18 18 18 18 18 18 18 18 18 19 19 19 19 19 19 19 19 19 19 19 19 19 19 19 19 19 19 19 19 19 19 19 19 19 19 19 19 19 19 19 19 20 20 20 20 20 20 20 20 20 20 20 20 20 20 20 20 20 20 20 20 20 20 20 20 20 20 20 20 20 20 20 20 20 20 20 20 20 20 20 20 20 20 20 20 20 20 20 20 20 20 20 20 20 20 20 20 20 20 20 20 20 20 20 20 20 20 20 20 20 20 21 21 21 21 21 21 21 21 21 21 21 22 22 22 22 22 22 22 22 22 22 22 22 22 22 22 22 22 22 22 22 22 22 22 22 22 22 22 22 22 22 22 22 22 22 22 22 22 22 22 22 22 22 22 22 23 23 23 24 24 24 25 25 25 25 25 25 25 25 25 26 26 26 26 26 26 26 26 26 26 26 26 26 26 26 26 26 26 26 26 26 26 26 26 26 26 26 26 26 26 26 26 26 26 26 27 27 27 27 27 27 27 27 27 27 27 27 27 27 27 27 27 27 27 27 27 27 27 27 27 27 27 27 27 27 27 27 27 27 27 26 26 26 26 26 26 26 26 26 26 26 26 26 26 26 26 26 26 26 27 27 27 28 28 29 29 30 30 30 31 31 31 31 31 32 32 32 32 32 32 32 32 32 32 32 32 32 32 32 32 32 31 31 31 31 31 31 31 31 31 31 31 31 31 31 31 31 32 32 32 32 32 32 32 32 32 32 33 33 33 34 35 35 36 37 38 40 41 43 44 44 45 45 45 46 46 46 46 47 47 46 46 45 45 44 43 42 41 40 39 37 37 36 36 36 36 36 36 36 36 36 36 36 36 36 36 36 36 36 36 36 36 36 36 36 36 37 37 37 37 37 38 38 39 39 40 40 41 41 42 42 43 43 44 44 44 45 45 46 46 47 47 48 48 49 50 51 51 52 53 53 54 55 56 56 57 57 58 58 58 58 57 57 56 55 54 53 52 51 51 50 50 49 49 48 47 47 46 45 45 44 43 43 42 41 41 40 40 40 39 39 39 39 39 39 39 40 41 42 43 45 46 47 47 48 49 49 50 50 51 51 51 51 50 50 50 49 49 48 48 48 48 48 47 46 46 45 44 43 43 43 44 46 47 49 50 51 51 52 52 52 51 50 48 47 45 44 44 44 44 44 44 44 43 42 41 41 40 38 37 35 33 31 29 29 28 29 29 30 30 30 29 28 27 26 26 26 27 28 29 29 28 26 24 22 21 21 21 22 23 24 25 25 26 26 26 27 27 27 26 25 25 24 24 24 24 24 24 23 23 23 23 23 24 25 26 29 30 30 31 31 31 31 31 32 32 32 32 32 33 34 36 37 37 35 33 29 26 23 21 19 17 18 19 22 25 30 35 38 41 41 41 41 40 39 37 33 29 22 17 15 13 13 14 18 20 23 24 25 26 29 31 34 36 37 37 38 38 38 38 38 37 37 37 36 36 36 36 36 36 36 36 36 36 35 35 35 35 34 34 33 33 32 31 29 28 26 25 24 23 22 19 14 11 10 10 10 10 10 10 10 10 10 10 10 10 10 10 12 15 17 19 20 20 19 18 18 17 17 17 17 17 17 17 17 18 20 22 24 25 26 26 24 22 16 11 10 8 9 9 9 9 9 9 9 9 9 9 9 8 8 9 13 18 24 29 29 30 30 29 29 29 29 29 29 29 29 29 28 28 29 29 29 29 29 29 29 30 29 29 29 29 29 29 29 29 28 28 28 28 28 28 28 28 28 29 29 28 28 28 28 28 27 27 26 25 24 23 22 21 21 20 20 20 20 20 20 20 19 19 19 19 19 19 19 19 18 18 18 17 17 17 17 17 17 16 16 16 16 16 16 16 16 16 16 16 16 16 16 16 16 16 16 16 16 16 16 16 16 16 16 16 16 17 17 17 18 18 19 19 20 20 20 20 20 20 20 20 20 20 20 20 20 20 19 19 18 18 17 16 15 14 14 13 12 12 12 12 12 12 12 12 12 12 12 12 12 12 12 12 12 12 12 12 12 12 12 12 12 12 12 12 12 12 12 12 12 12 12 12 12 12 12 12 12 12 12 12 12 12 12 12 12 11 11 11 11 11 11 11 11 11 11 11 11 11 11 11 11 11 11 11 11 11 11 11 11 11 11 11 11 11 11 11 10 10 10 10 9 9 9 9 9 9 9 9 9 9 9 9 9 9 9 9.006671
15 15 16 16 17 17 17 17 18 18 18 18 18 18 18 18 18 18 18 18 18 18 18 18 18 18 18 18 18 18 18 18 18 18 18 18 18 18 18 18 18 18 18 18 18 19 19 19 19 19 19 19 19 19 19 19 19 19 19 19 19 19 19 19 19 19 19 19 19 19 19 19 20 19 19 19 20 20 20 20 20 20 20 20 20 20 20 20 20 20 20 20 20 20 20 20 20 20 20 20 20 20 20 20 20 20 20 20 20 20 20 20 20 20 20 20 20 20 20 20 20 20 20 20 20 20 20 20 20 20 20 20 20 20 20 20 20 20 20 20 20 20 20 20 20 20 21 21 21 21 21 21 21 21 21 21 22 22 22 22 22 22 22 22 22 22 22 22 22 22 22 22 22 22 22 23 23 23 23 22 22 22 22 22 22 22 22 23 23 23 23 23 23 22 22 22 22 22 22 22 23 23 23 24 24 24 25 25 25 25 25 25 25 25 25 25 26 26 26 26 26 26 26 26 26 26 26 26 26 26 26 26 26 26 26 26 26 26 26 26 26 26 26 26 26 26 26 26 26 26 26 27 27 27 27 27 27 27 27 27 27 27 27 27 27 27 27 27 27 27 27 27 27 27 27 27 27 27 27 27 27 27 27 27 27 27 27 26 26 26 26 26 26 26 26 26 26 26 26 26 26 26 26 26 27 27 27 28 29 29 30 30 30 31 31 31 31 32 32 32 32 32 32 32 32 32 32 32 32 32 32 32 32 32 32 32 32 32 31 31 31 31 31 31 31 31 31 31 31 31 31 31 32 32 32 32 32 32 32 32 32 32 32 33 33 34 34 35 35 36 37 38 40 41 43 44 44 45 45 45 46 46 46 46 47 47 46 46 45 44 44 43 42 41 40 38 37 37 36 36 36 36 36 36 36 36 36 36 36 36 36 36 36 36 36 36 36 36 36 36 36 36 37 37 37 37 37 37 38 38 39 39 40 40 41 41 42 42 43 43 44 44 45 45 46 46 47 47 48 48 49 50 50 51 52 53 53 54 55 55 56 57 57 58 58 58 58 58 57 56 55 54 53 53 52 52 51 51 51 50 50 49 48 48 47 46 46 45 44 43 42 42 41 41 41 40 40 40 40 40 40 40 41 42 43 45 46 47 48 49 50 50 51 51 52 52 52 52 52 51 51 51 50 50 49 49 49 49 48 48 47 46 45 45 44 44 44 45 46 48 50 51 51 52 52 52 52 52 50 48 47 45 45 44 44 44 45 45 44 44 43 42 42 41 39 38 36 34 32 31 30 29 30 30 31 31 30 30 29 28 27 27 27 28 28 29 29 28 26 24 22 21 21 21 22 22 23 24 25 26 26 27 27 27 27 26 25 25 24 24 24 24 24 24 24 24 24 24 24 24 25 27 29 31 31 31 31 31 32 32 32 32 32 32 32 33 35 36 38 38 35 32 29 26 23 21 19 17 17 18 21 25 30 35 39 41 41 41 41 41 40 38 34 29 23 18 15 13 13 14 18 20 22 23 24 25 27 29 32 34 35 36 37 38 38 38 38 38 37 37 37 37 36 36 36 36 36 36 35 35 35 34 34 33 33 33 32 32 31 30 28 27 26 25 24 23 21 19 14 11 10 10 10 10 10 10 10 10 10 10 10 10 10 10 12 14 16 18 19 19 18 18 17 17 17 17 17 16 16 17 17 18 20 22 23 25 26 26 24 22 16 11 10 9 9 9 9 9 9 9 9 9 9 9 9 8 8 9 13 18 24 29 29 29 29 29 29 29 29 29 29 29 29 28 28 28 28 28 28 28 29 29 29 29 29 28 28 28 28 28 28 28 28 28 28 28 28 28 28 28 28 27 27 27 27 26 26 25 25 24 23 22 21 21 20 20 19 19 19 19 19 19 19 19 19 19 19 19 18 18 18 18 18 18 17 17 17 17 17 17 16 16 16 16 16 16 16 16 16 16 16 16 16 16 16 16 16 16 16 16 16 16 16 16 16 16 16 16 16 16 17 17 17 17 18 18 19 19 19 19 19 19 19 19 19 19 18 18 18 18 17 17 16 16 15 14 14 13 13 12 12 12 12 12 12 12 12 12 12 12 12 12 12 12 12 12 12 12 12 12 12 12 12 12 12 12 12 12 12 12 12 12 12 12 12 12 12 12 12 12 12 12 12 12 12 11 11 11 11 11 11 11 11 11 11 11 11 11 11 11 11 11 11 11 11 11 11 11 11 11 11 11 11 11 11 11 11 11 11 10 10 10 10 9 9 9 9 9 9 9 9 9 9 9 9 9 9 9 9 9.015453
15 15 15 16 17 17 17 17 18 18 18 18 18 18 18 18 18 18 18 18 18 18 18 18 18 18 18 18 18 18 18 18 18 18 18 18 18 18 18 18 18 18 18 18 18 19 19 19 19 19 19 19 19 19 19 19 19 19 19 19 19 19 19 19 19 19 19 19 19 19 20 20 20 19 19 20 20 20 20 20 20 20 20 20 20 20 20 20 20 20 20 20 20 20 20 20 20 20 20 20 20 20 20 20 20 20 20 20 20 20 20 20 20 20 20 20 20 20 20 20 20 20 20 20 20 20 20 20 20 20 20 20 20 20 20 20 20 20 20 20 20 20 20 20 20 21 21 21 21 21 21 21 21 21 21 21 22 22 22 22 22 22 22 22 22 22 22 22 22 22 22 22 23 23 23 23 23 23 23 23 23 23 23 23 23 23 23 23 23 23 23 23 23 23 23 23 22 23 23 23 23 23 24 24 24 25 25 25 25 25 25 25 25 25 25 25 26 26 26 26 26 26 26 26 26 26 26 26 26 26 26 26 26 26 26 26 26 26 26 26 26 26 26 26 26 26 26 26 26 26 26 27 27 27 27 27 27 27 27 27 27 27 27 27 28 28 28 28 28 28 28 27 27 27 27 27 27 27 27 27 27 27 27 27 27 27 27 27 26 26 26 26 26 26 26 26 26 26 26 26 26 26 27 27 27 28 28 29 29 30 30 31 31 31 32 32 32 32 32 32 32 32 32 32 32 32 32 32 32 32 32 32 32 32 32 32 32 32 32 31 31 31 31 31 31 31 31 31 31 31 31 31 32 32 32 32 32 32 32 32 32 32 32 33 33 34 34 35 35 36 37 38 40 41 43 44 44 45 45 45 45 46 46 46 47 47 46 46 45 44 44 43 42 41 40 38 37 37 36 36 36 36 36 36 36 36 36 36 36 36 36 36 36 36 36 36 36 36 36 36 36 36 36 37 37 37 37 37 38 38 38 39 39 40 41 41 42 42 43 43 44 44 45 45 46 46 46 47 48 48 49 50 50 51 52 52 53 54 55 55 56 57 57 57 58 58 58 58 57 57 56 55 54 53 53 53 52 52 52 52 51 51 50 49 48 48 47 46 45 45 44 43 43 42 42 41 41 41 40 40 41 41 42 43 45 47 48 49 50 50 51 52 52 53 53 53 53 53 53 53 52 52 51 51 51 50 50 49 49 49 48 47 46 45 45 45 45 46 47 48 50 51 52 52 53 53 53 52 50 49 47 45 45 44 44 45 45 45 45 45 44 43 43 42 40 39 37 36 34 32 31 30 31 31 31 31 31 31 30 29 28 28 28 28 29 29 29 28 26 24 22 21 20 21 21 22 23 24 25 26 27 27 27 27 27 26 25 25 24 24 24 24 24 24 24 24 24 24 24 25 26 27 30 31 32 32 32 32 32 32 32 32 32 32 32 33 35 36 38 38 35 32 29 25 23 21 19 17 17 18 20 24 30 35 39 42 42 42 41 41 40 38 35 30 23 18 15 13 13 14 17 20 22 23 23 23 25 27 29 32 34 35 36 37 38 38 38 38 38 38 37 37 37 37 37 36 36 36 35 35 34 33 33 32 32 31 31 31 30 29 27 26 25 24 23 22 20 18 13 10 10 10 10 10 10 10 10 10 10 10 10 10 10 10 12 13 15 17 18 19 18 17 17 17 17 17 16 16 16 16 17 17 19 21 23 24 25 26 24 21 16 12 10 9 9 9 9 9 8 8 9 9 9 9 9 9 8 9 14 18 24 29 29 29 29 29 29 28 28 28 28 28 28 28 28 28 28 28 28 28 28 28 28 28 28 28 27 27 27 27 27 28 27 27 27 27 27 27 27 27 27 26 26 26 25 25 24 23 22 21 20 20 19 19 19 18 18 18 18 18 18 18 18 18 18 18 18 18 18 18 18 18 17 17 17 17 17 17 17 17 16 16 16 16 16 16 16 16 16 16 16 16 16 16 16 16 16 16 16 16 16 16 16 16 16 16 16 16 16 16 16 16 16 16 17 17 17 18 18 18 18 18 18 18 18 17 17 16 16 15 15 14 14 13 13 13 12 12 12 12 12 12 12 12 12 12 12 12 12 12 12 12 12 12 12 12 12 12 12 12 12 12 12 12 12 12 12 12 12 12 12 12 12 12 12 12 12 12 12 12 12 12 12 11 11 11 11 11 11 11 11 11 11 11 11 11 11 11 11 11 11 11 11 11 11 11 11 11 11 11 11 11 11 11 11 11 11 11 10 10 10 10 10 9 9 9 9 9 9 9 9 9 9 9 9 9 9 9 9 9.024235
15 15 15 16 17 17 17 17 18 18 18 18 18 18 18 18 18 18 18 18 18 18 18 18 18 18 18 18 18 18 18 18 18 18 18 18 18 18 18 18 18 18 18 18 18 19 19 19 19 19 19 19 19 19 19 19 19 19 19 19 19 19 19 19 19 19 19 19 19 19 20 20 20 20 20 20 20 20 20 20 20 20 20 20 20 20 20 20 20 20 20 20 20 20 20 20 20 20 20 20 20 20 20 20 20 20 20 20 20 20 20 20 20 20 20 20 20 20 20 20 20 20 20 20 20 20 20 20 20 20 20 20 20 20 20 20 20 20 20 20 20 20 20 20 20 21 21 21 21 21 21 21 21 21 21 22 22 22 22 22 22 22 22 22 22 22 22 22 22 22 23 23 23 23 23 23 23 23 23 23 23 23 23 23 23 23 23 23 23 23 23 23 23 23 23 23 23 23 23 23 23 24 24 24 24 25 25 25 25 25 25 25 25 25 25 25 26 26 26 26 26 26 26 26 26 26 26 26 26 26 26 26 26 26 26 26 26 26 26 26 26 26 26 26 26 26 26 26 26 26 27 27 27 27 27 27 27 27 27 27 27 27 28 28 28 28 28 28 28 28 28 28 28 28 28 27 27 27 27 27 27 27 27 27 27 27 27 27 27 27 26 26 26 26 26 26 26 26 26 26 26 27 27 27 28 28 29 29 30 31 31 32 32 32 32 32 32 32 32 32 32 32 32 32 32 32 32 32 32 32 32 32 32 32 32 32 32 32 32 32 32 31 31 31 31 31 31 31 31 31 31 32 32 32 32 32 32 32 32 32 32 32 32 33 33 34 34 35 36 36 37 38 40 42 43 44 44 45 45 45 46 46 46 47 47 47 46 46 45 44 43 43 42 41 39 38 37 37 36 36 36 36 36 36 36 36 36 36 36 36 36 36 36 36 36 36 36 36 36 36 36 36 36 36 37 37 37 37 37 38 38 39 39 40 40 41 41 42 43 43 44 44 45 45 46 46 46 47 48 48 49 50 50 51 52 52 53 54 54 55 56 56 57 57 58 58 58 58 57 57 56 55 54 54 53 53 53 53 53 53 53 52 51 51 50 49 48 47 46 46 45 44 44 43 43 43 42 42 41 41 41 42 43 44 46 48 50 51 51 52 52 53 53 54 54 54 54 54 54 54 53 53 52 52 51 51 51 50 50 49 49 48 47 46 46 46 46 47 48 49 51 52 53 53 53 54 53 52 50 48 46 45 44 44 44 45 45 45 45 45 45 44 44 43 41 40 38 37 35 33 32 31 31 31 32 32 32 31 30 29 29 28 28 28 29 29 29 28 25 23 22 21 20 21 21 22 23 24 25 26 27 27 27 27 27 26 26 25 24 24 24 24 24 24 24 24 24 24 25 25 26 28 30 31 32 32 32 32 32 32 32 32 32 32 32 33 35 36 38 38 35 32 28 25 23 21 18 17 17 18 20 23 29 34 39 42 42 42 42 41 41 39 35 31 24 18 15 13 13 14 17 19 20 21 20 20 21 22 23 25 27 28 29 30 31 31 31 32 32 31 31 31 30 30 30 29 29 28 28 27 27 26 26 26 26 26 26 26 25 25 24 24 23 22 22 21 19 17 13 10 10 10 10 10 10 10 10 10 10 10 10 10 10 10 11 13 15 16 17 18 17 17 17 17 17 16 16 16 16 16 16 17 19 21 22 24 25 25 23 21 16 12 10 9 9 9 9 8 8 8 9 9 9 9 9 9 8 9 14 18 24 29 28 28 28 28 28 28 28 28 28 28 28 28 27 27 27 27 27 27 27 27 27 27 27 26 26 26 26 26 26 27 27 27 26 26 26 25 25 24 24 24 23 23 22 22 21 21 20 19 19 19 18 18 18 18 18 18 18 18 18 18 18 18 18 18 18 18 18 18 17 17 17 17 17 17 17 17 17 16 16 16 16 16 16 16 16 16 16 16 16 16 16 16 16 16 16 16 16 16 16 16 16 16 16 16 16 16 16 16 16 16 16 16 16 16 17 17 17 17 17 17 17 16 16 16 15 15 15 14 14 13 13 13 13 12 12 12 12 12 12 12 12 12 12 12 12 12 12 12 12 12 12 12 12 12 12 12 12 12 12 12 12 12 12 12 12 12 12 12 12 12 12 12 12 12 12 12 12 12 12 11 11 11 11 11 11 11 11 11 11 11 11 11 11 11 11 11 11 11 11 11 11 11 11 11 11 11 11 11 11 11 11 11 11 11 11 10 10 10 10 10 9 9 9 9 9 9 9 9 9 9 9 9 9 9 9 9 9 9.0242605
15 15 15 16 17 17 17 17 18 18 18 18 18 18 18 18 18 18 18 18 18 18 18 18 18 18 18 18 18 18 18 18 18 18 18 18 18 18 18 18 18 18 18 18 18 19 19 19 19 19 19 19 19 19 19 19 19 19 19 19 19 19 19 19 19 19 19 19 19 19 20 20 20 20 20 20 20 20 20 20 20 20 20 20 20 20 20 20 20 20 20 20 20 20 20 20 20 20 20 20 20 20 20 20 20 20 20 20 20 20 20 20 20 20 20 20 20 20 20 20 20 20 20 20 20 20 20 20 20 20 20 20 20 20 20 20 20 20 20 20 20 20 20 20 20 21 21 21 21 21 21 21 21 21 21 22 22 22 22 22 22 22 22 22 22 22 22 22 23 23 23 23 23 23 23 23 23 23 23 23 23 23 23 23 23 23 23 23 23 23 23 23 23 23 23 23 23 23 23 23 23 24 24 24 25 25 25 25 25 25 25 25 25 25 25 25 26 26 26 26 26 26 26 26 26 26 26 26 26 26 26 26 26 26 26 26 26 26 26 26 26 26 26 26 26 26 26 26 26 26 27 27 27 27 27 27 27 27 27 27 28 28 28 28 28 28 28 28 28 28 28 28 28 28 28 28 28 28 27 27 27 27 27 27 27 27 27 27 27 27 27 27 27 27 27 27 26 26 26 27 27 27 27 28 28 29 30 30 31 32 32 32 33 33 33 33 33 33 33 33 33 33 33 33 33 33 33 33 33 33 32 32 32 32 32 32 32 32 32 32 32 32 32 32 32 31 31 31 31 32 32 32 32 32 32 32 32 32 32 32 32 32 32 33 33 34 35 35 36 36 37 39 40 42 43 44 44 45 45 45 46 46 46 47 47 47 46 46 45 44 43 42 42 40 39 38 37 37 36 36 36 36 36 36 36 36 36 36 36 36 36 36 36 36 36 36 36 36 36 36 36 36 36 36 37 37 37 37 37 38 38 38 39 39 40 41 41 42 42 43 43 44 45 45 46 46 47 47 48 48 49 50 50 51 52 52 53 53 54 55 55 56 57 57 58 58 58 58 57 57 56 55 55 54 54 54 54 54 54 54 54 53 53 52 51 50 49 48 48 47 46 45 45 44 44 44 43 43 42 42 42 43 44 46 48 50 51 52 53 53 54 54 55 55 55 55 55 55 55 55 54 54 54 53 52 52 51 51 50 50 49 48 48 47 47 47 47 48 49 50 52 53 53 54 54 54 54 52 50 48 45 44 44 43 44 44 45 45 46 46 46 45 45 44 42 41 40 38 36 35 33 32 32 32 32 32 32 31 31 30 29 29 29 29 29 29 29 28 25 23 21 20 20 20 21 22 23 24 25 26 27 28 28 28 27 27 26 25 25 24 24 24 24 24 24 24 24 25 25 26 26 28 30 31 32 32 32 32 32 32 32 32 32 32 32 33 35 36 38 38 35 31 28 25 23 20 18 16 16 17 19 23 29 34 38 42 42 42 42 41 41 40 36 31 24 18 15 13 13 14 16 18 18 19 18 17 17 17 17 18 19 21 22 23 24 25 25 25 25 25 25 25 24 23 23 22 21 21 20 20 19 19 19 19 19 20 20 21 21 21 21 21 21 20 20 20 18 16 12 10 10 10 10 10 10 10 10 10 10 10 10 10 10 10 11 12 14 15 16 17 17 17 17 17 16 16 16 16 16 16 16 17 19 20 22 24 24 25 23 20 16 12 10 9 9 9 9 8 8 8 9 9 9 9 9 9 8 9 14 18 24 29 28 27 28 28 28 28 28 27 27 27 27 27 27 26 26 25 25 25 25 25 25 25 25 25 25 25 25 25 26 26 26 26 25 25 24 23 23 22 22 21 21 20 20 19 18 18 18 18 18 18 18 18 18 18 18 18 18 18 18 18 18 18 18 18 17 17 17 17 17 17 17 17 17 17 17 17 16 16 16 16 16 16 16 16 16 16 16 16 16 16 16 16 16 16 16 16 16 16 16 16 16 16 16 16 16 16 16 16 16 16 16 16 16 16 16 16 16 16 16 15 15 15 14 14 14 13 13 13 13 12 12 12 12 12 12 12 12 12 12 12 12 12 12 12 12 12 12 12 12 12 12 12 12 12 12 12 12 12 12 12 12 12 12 12 12 12 12 12 12 12 12 12 12 12 12 12 11 11 11 11 11 11 11 11 11 11 11 11 11 11 11 11 11 11 11 11 11 11 11 11 11 11 11 11 11 11 11 11 11 11 11 11 11 11 10 10 10 10 10 9 9 9 9 9 9 9 9 9 9 9 9 9 9 9 9 9 9 9.024287
15 15 15 16 16 17 17 17 18 18 18 18 18 18 18 18 18 18 18 18 18 18 18 18 18 18 18 18 18 18 18 18 18 18 18 18 18 18 18 18 18 18 18 18 18 19 19 19 19 19 19 19 19 19 19 19 19 19 19 19 19 19 19 19 19 19 19 19 19 19 19 19 20 19 19 20 20 20 20 20 20 20 20 20 20 20 20 20 20 20 20 20 20 20 20 20 20 20 20 20 20 20 20 20 20 20 20 20 20 20 20 20 20 20 20 20 20 20 20 20 20 20 20 20 20 20 20 20 20 20 20 20 20 20 20 20 20 20 20 20 20 20 20 20 20 21 21 21 21 21 21 21 21 21 21 22 22 22 22 22 22 22 22 22 22 22 23 23 23 23 23 23 23 23 23 23 23 23 23 23 23 23 23 23 23 23 23 23 23 23 23 23 23 23 23 23 23 23 23 23 24 24 24 25 25 25 25 25 25 25 25 25 25 25 25 25 26 26 26 26 26 26 26 26 26 26 26 26 26 26 26 26 26 26 26 26 26 26 26 26 26 26 26 26 26 26 26 26 26 27 27 27 27 27 27 27 27 27 27 28 28 28 28 28 28 28 28 28 28 28 28 28 28 28 28 28 28 28 28 28 28 27 27 27 27 27 27 27 27 27 27 27 27 27 27 27 27 27 27 27 27 27 28 29 29 30 30 31 32 32 33 33 33 33 33 33 33 33 33 33 33 33 33 33 33 33 33 33 33 33 33 32 32 32 32 32 32 32 32 32 32 32 32 32 32 32 32 32 32 32 32 32 32 32 32 32 32 32 32 32 32 32 32 33 33 34 35 35 36 37 37 39 40 42 43 44 44 45 45 45 46 46 47 47 47 47 46 46 45 44 43 42 41 40 39 38 37 37 36 36 36 36 36 36 36 36 36 36 36 36 36 36 36 36 36 36 36 36 36 36 36 36 36 36 36 37 37 37 37 38 38 38 39 39 40 41 41 42 42 43 43 44 45 45 46 46 47 47 48 48 49 50 50 51 52 52 53 53 54 55 55 56 57 57 58 58 58 58 58 57 57 56 55 55 55 54 54 54 55 55 55 55 54 53 52 51 51 50 49 48 47 47 46 45 45 45 44 44 43 43 43 43 45 47 49 51 53 54 54 54 55 55 56 56 56 56 56 56 56 56 55 55 55 54 53 52 52 51 51 50 50 49 48 48 48 48 48 48 50 51 52 53 54 54 55 55 54 52 49 47 45 43 43 43 43 44 45 45 46 46 46 46 45 44 43 42 40 38 37 35 33 32 32 32 32 32 32 31 31 30 29 29 29 29 29 29 29 27 25 23 21 20 20 20 21 22 23 24 25 26 27 28 28 28 28 27 26 25 25 24 24 24 24 24 24 25 25 25 26 26 27 28 30 31 32 32 32 32 32 32 32 32 32 32 32 33 35 36 38 38 34 31 28 25 23 20 18 16 16 17 18 21 27 32 36 40 41 41 41 41 40 39 36 31 24 18 15 13 13 13 15 16 17 17 16 16 16 16 16 16 17 18 18 19 20 20 21 21 21 21 21 21 21 20 20 20 19 19 19 18 18 18 18 18 18 18 19 19 19 19 19 19 19 19 19 19 17 16 12 10 10 10 10 10 10 10 10 10 10 10 10 10 10 10 11 12 13 15 16 16 17 17 17 16 16 16 16 16 16 16 16 17 19 20 22 23 24 24 22 19 16 13 11 9 9 9 9 8 8 9 9 9 9 9 9 9 8 9 13 18 24 28 28 27 27 27 27 27 27 27 27 27 27 26 26 25 25 25 25 25 25 25 25 25 25 25 25 25 25 25 25 25 25 25 24 23 23 22 21 21 20 20 19 19 18 18 18 17 17 17 17 17 17 17 17 17 17 17 17 17 17 17 17 17 17 17 17 17 17 17 17 17 17 17 17 17 17 16 16 16 16 16 16 16 16 16 16 16 16 16 16 16 16 16 16 16 16 16 16 16 15 15 15 15 15 15 15 15 15 15 15 15 15 15 15 15 15 15 15 15 15 15 15 14 14 14 13 13 13 13 12 12 12 12 12 12 12 12 12 12 12 12 12 12 12 12 12 12 12 12 12 12 12 12 12 12 12 12 12 12 12 12 12 12 12 12 12 12 12 12 12 12 12 11 11 11 11 11 11 11 11 11 11 11 11 11 11 11 11 11 11 11 11 11 11 11 11 11 11 11 11 11 11 11 11 11 11 11 11 11 11 11 11 11 11 11 10 10 10 10 10 9 9 9 9 9 9 9 9 9 9 9 9 9 9 9 9 9 9 9.01572
15 15 15 16 16 17 17 17 17 18 18 18 18 18 18 18 18 18 18 18 18 18 18 18 18 18 18 18 18 18 18 18 18 18 18 18 18 18 18 18 18 18 18 18 18 18 18 18 18 18 19 19 19 19 19 19 19 19 19 19 19 19 19 19 19 19 19 19 19 19 19 19 19 19 19 19 19 19 19 20 20 20 19 19 19 19 19 19 19 20 20 20 20 20 20 20 20 20 20 20 20 20 20 20 20 20 20 20 20 20 20 20 20 20 20 20 20 20 20 20 20 20 20 20 20 20 20 20 20 20 20 20 20 20 20 20 20 20 20 20 20 20 20 20 20 21 21 21 21 21 21 21 21 21 22 22 22 22 22 22 22 22 22 23 23 23 23 23 23 23 23 23 23 23 23 23 23 23 23 23 23 23 23 23 23 23 23 23 23 23 23 23 23 23 23 23 23 23 23 24 24 24 24 25 25 25 25 25 25 25 25 25 25 25 25 25 26 26 26 26 26 26 26 26 26 26 26 26 26 26 26 26 26 26 26 26 26 26 26 26 26 26 26 26 26 26 26 26 27 27 27 27 27 27 27 27 27 27 28 28 28 28 28 28 28 28 28 28 28 28 28 28 28 28 28 28 28 28 28 28 28 28 28 27 27 27 27 27 27 27 27 27 27 27 27 27 27 27 27 27 27 28 29 29 30 31 31 32 32 33 33 33 33 33 33 33 33 33 33 33 33 33 33 33 33 33 33 33 33 33 33 33 32 32 32 32 32 32 32 32 32 32 32 32 32 32 32 32 32 32 32 32 32 32 32 32 32 32 32 32 32 32 32 33 34 34 35 36 36 37 38 39 41 42 43 44 44 45 45 46 46 46 47 47 47 47 46 46 45 44 43 42 41 40 39 38 37 37 36 36 36 36 36 36 36 36 36 36 36 36 36 36 36 36 36 36 36 36 36 36 36 36 36 36 36 37 37 37 37 37 38 38 38 39 40 40 41 42 42 43 43 44 45 45 46 46 47 47 48 48 49 50 51 51 52 52 53 53 54 55 55 56 57 57 57 58 58 58 58 58 57 56 56 55 55 55 55 55 55 56 56 56 55 55 54 53 52 51 50 50 49 48 47 47 46 46 45 44 44 43 43 44 45 47 50 53 54 55 55 56 56 56 57 57 57 57 57 57 57 57 56 56 56 55 54 53 52 52 51 51 50 50 49 49 48 48 49 49 50 52 53 54 55 55 55 55 54 51 48 46 44 43 42 42 43 43 44 45 46 46 47 47 46 45 44 43 41 39 37 36 34 33 32 32 32 32 32 32 31 31 30 30 30 30 30 29 29 27 25 22 21 20 20 20 21 21 22 23 24 26 27 28 29 29 28 27 26 25 25 24 24 24 24 24 25 25 26 26 26 27 27 28 30 31 32 32 32 32 32 32 32 32 31 31 32 33 35 36 38 37 34 31 28 25 23 20 17 16 16 16 17 20 25 30 34 38 40 40 40 40 40 39 36 31 24 18 15 13 13 13 14 15 15 15 15 15 14 14 14 14 14 14 15 15 16 16 17 17 17 17 17 17 17 17 17 17 17 17 17 17 17 17 17 17 17 17 17 17 17 17 17 17 17 18 18 18 17 15 12 10 10 10 10 10 10 10 10 10 10 10 10 10 10 10 11 12 13 14 15 16 16 17 16 16 16 16 16 16 16 16 16 17 18 20 22 23 23 23 21 19 16 13 11 9 9 9 9 9 9 9 9 9 9 9 9 9 8 9 13 17 24 28 27 27 27 27 27 27 27 27 26 26 26 26 25 25 24 24 24 24 24 24 25 25 25 25 24 24 24 24 25 25 25 24 23 22 21 21 20 20 19 19 18 18 17 17 17 17 17 17 17 17 17 17 17 17 17 17 17 17 17 17 17 17 17 17 17 17 17 17 17 17 17 17 16 16 16 16 16 16 16 16 16 16 16 16 16 16 16 16 16 16 16 16 16 16 16 15 15 15 15 15 15 15 15 15 15 15 15 15 15 15 15 15 15 15 15 15 15 15 14 14 14 14 13 13 13 13 13 12 12 12 12 12 12 12 12 12 12 12 12 12 12 12 12 12 12 12 12 12 12 12 12 12 12 12 12 12 12 12 12 12 12 12 12 12 12 12 12 12 12 11 11 11 11 11 11 11 11 11 11 11 11 11 11 11 11 11 11 11 11 11 11 11 11 11 11 11 11 11 11 11 11 11 11 11 11 11 11 11 11 11 11 11 11 11 10 10 10 10 9 9 9 9 9 9 9 9 9 9 9 9 9 9 9 9 9 9 9 9.007154
15 15 15 16 16 17 17 17 17 17 18 18 18 18 18 18 18 18 18 18 18 18 18 18 18 18 18 18 18 18 18 18 18 18 18 18 18 18 18 18 18 18 18 18 18 18 18 18 18 18 18 19 19 19 19 19 19 19 19 19 19 19 19 19 19 19 19 19 19 19 19 19 19 19 19 19 19 19 19 20 20 20 20 20 20 20 20 20 20 20 20 20 20 20 20 20 20 20 20 20 20 20 20 20 20 20 20 20 20 20 20 20 20 20 20 20 20 20 20 20 20 20 20 20 20 20 20 20 20 20 20 20 20 20 20 20 20 20 20 20 20 20 20 20 20 20 21 21 21 21 21 21 21 21 22 22 22 22 22 22 22 23 23 23 23 23 23 23 23 23 23 23 23 23 23 23 23 23 23 23 23 23 23 23 23 23 23 23 23 23 24 24 24 23 23 23 23 23 23 24 24 24 25 25 25 25 25 25 25 25 25 25 25 25 25 25 25 26 26 26 26 26 26 26 26 26 26 26 26 26 26 26 26 26 26 26 26 26 26 26 26 26 26 26 26 26 26 27 27 27 27 27 27 27 27 27 27 28 28 28 28 28 28 28 28 28 28 28 28 28 28 28 28 28 28 28 28 28 28 28 28 28 28 28 28 27 27 27 27 27 27 27 27 27 27 27 27 27 27 28 28 28 29 30 31 31 32 32 33 33 33 33 33 33 33 33 33 33 33 33 33 33 33 33 33 33 33 33 33 33 33 33 33 32 32 32 32 32 32 32 32 32 32 32 32 32 32 32 32 32 32 32 32 32 32 32 32 32 32 32 32 32 32 33 34 34 35 36 36 37 38 39 41 42 43 44 45 45 45 46 46 46 47 47 47 47 46 46 45 44 43 42 41 40 38 38 37 37 36 36 36 36 36 36 36 36 36 36 36 36 36 36 36 36 36 36 36 36 36 36 36 36 36 36 36 37 37 37 37 37 38 38 38 39 40 40 41 42 42 43 44 44 45 45 46 46 47 47 48 49 50 50 51 52 52 53 53 54 54 55 56 56 57 57 58 58 58 58 58 58 58 57 57 56 56 56 56 56 56 57 57 57 57 56 55 54 53 52 52 51 50 49 48 47 47 46 46 45 44 44 43 44 45 48 51 53 55 56 56 56 57 57 57 58 58 58 58 58 58 58 58 57 57 56 54 53 52 51 51 50 50 50 49 49 49 49 49 50 51 52 53 54 55 55 55 55 53 51 47 45 43 42 41 41 42 42 44 45 46 46 47 47 47 46 44 43 41 39 37 35 33 32 31 31 31 31 31 31 31 31 30 30 30 30 30 30 29 27 24 22 21 20 20 20 20 21 22 23 24 26 28 29 30 30 29 28 27 26 25 25 25 25 25 25 26 27 27 27 27 27 27 28 29 31 31 32 32 32 32 32 32 31 31 31 32 33 35 36 37 37 33 30 28 25 22 19 17 15 15 15 16 18 22 26 30 33 36 37 38 38 38 37 34 30 23 17 14 12 13 13 14 14 15 15 14 14 14 14 14 14 14 14 15 15 15 16 16 16 17 17 17 17 17 17 17 17 17 17 17 17 17 17 17 17 17 17 17 17 17 17 17 17 17 17 17 17 17 15 12 10 10 10 10 10 10 10 10 10 10 10 10 10 10 10 11 11 13 14 15 15 16 16 16 16 16 16 16 16 15 15 16 17 18 20 21 22 22 22 20 17 15 13 11 9 9 9 9 9 9 9 9 9 9 9 9 9 8 9 13 17 23 28 27 26 26 26 27 27 26 26 26 26 25 25 25 24 24 24 24 24 24 24 24 25 24 24 24 24 24 24 25 25 24 23 22 21 20 20 19 19 18 18 17 17 17 17 17 17 17 17 17 17 17 17 17 17 17 17 17 17 17 17 17 17 17 17 17 17 17 17 17 17 17 17 16 16 16 16 16 16 16 16 16 16 16 16 16 16 16 16 16 16 16 16 16 15 15 15 15 15 15 15 15 15 15 15 15 15 15 15 15 15 15 15 15 15 15 15 15 15 14 14 14 13 13 13 13 13 12 12 12 12 12 12 12 12 12 12 12 12 12 12 12 12 12 12 12 12 12 12 12 12 12 12 12 12 12 12 12 12 12 12 12 12 12 12 12 12 11 11 11 11 11 11 11 11 11 11 11 11 11 11 11 11 11 11 11 11 11 11 11 11 11 11 11 11 11 11 11 11 11 11 11 11 11 11 11 11 11 11 11 11 11 11 11 10 10 10 10 9 9 9 9 9 9 9 9 9 9 9 9 9 9 9 9 9 9 8 8 8.975371
15 15 15 16 16 17 17 17 17 17 18 18 18 18 18 18 18 18 18 18 18 18 18 18 18 18 18 18 18 18 18 18 18 18 18 18 18 18 18 18 18 18 18 18 18 18 18 18 18 18 18 19 19 19 19 19 19 19 19 19 19 19 19 19 19 19 19 19 19 19 19 19 19 19 19 19 19 19 19 20 20 20 20 20 20 20 20 20 20 20 20 20 20 20 20 20 20 20 20 20 20 20 20 20 20 20 20 20 20 20 20 20 20 20 20 20 20 20 20 20 20 20 20 20 20 20 20 20 20 20 20 20 20 20 20 20 20 20 20 20 20 20 20 20 20 20 21 21 21 21 21 21 21 21 21 22 22 22 22 22 23 23 23 23 23 23 23 23 23 23 23 23 23 23 23 23 23 23 23 23 23 23 23 23 23 23 23 24 24 24 24 24 24 24 24 23 23 23 24 24 24 24 25 25 25 25 25 25 25 25 25 25 25 25 25 25 25 26 26 26 26 26 26 26 26 26 26 26 26 26 26 26 26 26 26 26 26 26 26 26 26 26 26 26 26 26 26 27 27 27 27 27 27 27 27 27 28 28 28 28 28 28 28 28 28 28 28 28 28 28 28 28 28 28 28 28 28 28 28 28 28 28 28 28 28 28 28 28 27 27 27 27 27 27 27 27 27 27 28 28 28 29 30 30 31 32 32 33 33 33 33 33 34 34 34 34 33 33 33 33 33 33 33 33 33 33 33 33 33 33 33 33 33 33 32 32 32 32 32 32 32 32 32 32 32 32 32 32 32 32 32 32 32 32 32 32 32 32 32 32 32 32 32 33 34 35 35 36 37 37 38 40 41 43 44 44 45 45 46 46 46 47 47 47 47 47 46 45 45 44 43 41 40 39 38 37 37 36 36 36 36 36 36 36 36 36 36 36 36 36 36 36 36 36 36 36 36 36 36 36 36 36 36 36 36 36 37 37 37 37 38 38 38 39 40 40 41 42 42 43 44 44 45 46 46 46 47 48 48 49 50 51 52 52 53 53 54 54 55 55 56 57 57 58 58 58 59 59 59 59 58 58 57 57 57 57 57 57 57 58 58 58 58 57 56 55 54 54 53 52 51 50 49 48 48 47 46 46 45 44 44 44 46 48 51 54 56 57 57 57 58 58 58 58 58 58 58 59 59 59 59 59 58 57 55 53 51 50 50 50 50 50 50 50 49 50 50 51 52 53 54 55 55 56 55 54 52 50 46 44 42 41 40 40 41 42 43 44 46 47 47 47 47 46 45 43 41 39 37 35 33 31 30 30 30 31 31 31 31 31 31 31 31 31 31 30 29 27 24 22 21 20 20 20 20 21 22 23 24 26 28 30 30 30 30 29 28 27 26 26 25 25 26 26 27 28 28 28 28 28 27 28 29 30 31 31 31 32 32 32 32 31 31 31 32 33 34 36 37 36 33 30 27 25 21 18 16 14 15 15 15 16 19 22 25 29 32 34 35 36 36 35 33 29 22 17 14 12 13 13 13 14 14 14 14 14 14 14 14 14 14 14 14 15 15 15 16 16 16 16 17 17 17 17 17 17 17 17 17 17 17 17 17 17 17 17 17 17 17 17 17 16 16 16 17 17 16 15 12 10 10 10 10 10 10 10 10 10 10 10 10 10 10 10 11 11 13 14 14 15 16 16 16 16 16 15 15 15 15 15 16 16 18 19 21 21 21 21 18 16 14 13 11 9 9 9 9 9 9 9 9 9 9 9 9 9 8 9 12 16 23 27 27 26 26 26 26 26 26 26 26 25 25 25 24 24 24 24 24 24 24 24 24 24 24 24 24 24 24 24 25 25 24 22 21 20 19 19 18 18 17 17 17 17 17 17 17 17 17 16 16 16 16 16 16 16 16 16 16 16 16 16 16 16 16 16 16 16 17 17 17 17 17 17 16 16 16 16 16 16 16 16 16 16 16 16 16 16 16 16 16 16 16 16 15 15 15 15 15 15 15 15 15 15 15 15 15 15 15 15 15 15 15 15 15 15 15 15 14 14 14 14 14 13 13 13 13 12 12 12 12 12 12 11 11 11 12 12 12 12 12 12 12 12 12 12 12 12 12 12 12 12 12 12 12 12 12 12 12 12 12 12 12 12 12 11 11 11 11 11 11 11 11 11 11 11 11 11 11 11 11 11 11 11 11 11 11 11 11 11 11 11 11 11 11 11 11 11 11 11 11 11 11 11 11 11 11 11 11 11 11 11 11 11 10 10 10 10 10 9 9 9 9 9 9 9 9 9 9 9 9 9 9 9 9 9 9 8 8 8.943588
15 15 15 16 16 16 17 17 17 17 17 18 18 18 18 18 18 18 18 18 18 18 18 18 18 18 18 18 18 18 18 18 18 18 18 18 18 18 18 18 18 18 19 19 19 19 19 19 19 19 19 19 19 19 19 19 19 19 19 19 19 19 19 19 19 19 19 19 19 19 19 19 19 20 20 20 20 20 20 20 20 20 20 20 19 19 19 19 19 20 20 20 20 20 20 20 20 20 20 20 20 20 20 20 20 20 20 20 20 20 20 20 20 20 20 20 20 20 20 20 20 20 20 20 20 20 20 20 20 20 20 20 20 20 20 20 20 20 20 20 20 20 20 20 20 20 20 21 21 21 21 21 21 21 21 22 22 22 22 22 22 23 23 23 23 23 23 23 23 23 23 23 23 23 23 23 23 23 23 23 23 23 23 23 23 23 23 24 24 24 24 24 24 24 24 23 23 24 24 24 24 24 25 25 25 25 25 25 25 25 25 25 25 25 25 25 25 25 26 26 26 26 26 26 26 26 26 26 26 26 26 26 26 26 26 26 26 26 26 26 26 26 26 26 26 26 27 27 27 27 27 27 27 27 27 27 28 28 28 28 28 28 28 28 28 28 28 28 28 28 28 28 28 28 28 28 28 28 28 28 28 28 28 28 28 28 28 28 28 28 28 28 28 28 28 28 28 28 28 28 29 29 30 31 32 32 32 33 33 33 33 34 34 34 34 34 34 34 33 33 33 33 33 33 33 33 33 33 33 33 33 33 33 33 33 32 32 32 32 32 32 32 32 32 32 32 32 32 32 32 32 32 32 32 32 32 32 32 32 32 32 32 33 33 34 35 36 36 37 38 39 40 42 43 44 45 45 45 46 46 46 47 47 47 47 47 46 45 44 43 42 41 40 39 38 37 37 36 36 36 36 36 36 36 36 36 36 36 36 36 36 36 36 36 36 36 36 36 36 36 36 36 36 36 36 37 37 37 37 37 38 38 39 39 40 41 41 42 43 43 44 45 45 46 46 47 48 48 49 49 50 51 52 53 53 54 54 55 55 56 56 57 57 58 58 59 59 59 59 59 59 58 58 57 57 57 57 57 58 58 58 58 58 57 57 56 55 54 53 53 52 51 50 49 49 48 47 46 45 44 44 44 45 48 51 54 56 57 58 58 58 58 58 59 59 59 59 59 59 60 60 59 58 56 54 51 49 48 48 48 49 49 49 49 49 49 50 50 51 52 53 54 54 54 54 53 51 48 45 43 41 40 39 39 40 41 42 44 45 46 47 47 47 46 45 43 41 39 36 34 32 30 29 29 29 30 30 31 31 31 31 31 32 32 32 31 30 28 25 22 21 20 20 20 20 21 22 24 25 27 29 31 31 32 31 30 29 28 27 27 27 27 27 28 29 29 29 29 28 28 28 28 29 30 31 31 31 31 32 32 31 31 31 31 32 33 34 36 37 36 32 29 27 24 21 18 15 14 14 14 14 15 17 19 22 24 27 29 30 31 31 31 29 26 21 16 14 12 12 13 13 13 14 14 14 14 14 14 14 14 14 14 14 14 15 15 15 16 16 16 16 17 17 17 17 17 17 17 17 17 17 17 17 17 17 17 17 17 17 17 17 16 16 16 17 17 16 15 12 10 10 10 10 10 10 10 10 10 10 10 10 10 10 10 11 11 12 13 14 14 15 16 16 15 15 15 15 15 15 15 15 16 17 19 20 20 20 19 17 15 14 13 11 9 9 9 9 9 9 9 9 9 9 9 9 9 8 9 12 15 22 27 26 26 26 26 26 26 26 26 25 25 25 25 24 24 24 24 24 24 24 24 24 24 24 24 24 24 24 24 24 24 23 21 20 19 19 18 17 17 17 17 17 17 17 17 17 16 16 16 16 16 16 16 16 16 16 16 16 16 16 16 16 16 16 16 16 16 16 17 17 17 16 16 16 16 16 16 16 16 16 16 16 16 16 16 16 16 16 16 16 16 15 15 15 15 15 15 15 15 15 15 15 15 15 15 15 15 15 15 15 15 15 15 15 15 14 14 14 14 14 14 13 13 13 13 12 12 12 12 12 11 11 11 11 11 11 11 11 11 12 12 12 12 12 12 12 12 12 12 12 12 12 12 12 12 12 12 12 12 12 12 12 11 11 11 11 11 11 11 11 11 11 11 11 11 11 11 11 11 11 11 11 11 11 11 11 11 11 11 11 11 11 11 11 11 11 11 11 11 11 11 11 11 11 11 11 11 11 11 11 11 11 10 10 10 10 10 9 9 9 8 8 9 9 9 9 9 9 9 9 9 9 9 9 9 8 8 8 8.896595
15 15 15 16 16 16 17 17 17 17 17 18 18 18 18 18 18 18 17 18 18 18 18 18 18 18 18 18 18 18 18 18 18 18 18 18 18 18 18 18 18 19 19 19 19 19 19 19 19 19 19 19 19 19 19 19 19 19 19 19 19 19 19 19 19 19 19 19 19 19 19 19 19 20 20 21 21 21 21 20 20 19 19 19 19 19 19 19 19 19 20 20 21 21 21 20 20 20 20 20 20 20 20 20 20 20 20 20 20 20 20 20 20 20 20 20 20 20 20 20 20 20 20 20 20 20 20 20 20 20 20 20 20 20 20 20 20 20 20 20 20 20 20 20 20 20 20 20 21 21 21 21 21 21 21 22 22 22 22 22 22 22 23 23 23 23 23 23 23 23 23 23 23 23 23 23 23 23 23 23 23 23 23 23 23 23 23 24 24 24 24 24 24 24 24 24 23 24 24 24 24 24 25 25 25 25 25 25 25 25 25 25 25 25 25 25 25 25 25 26 26 26 26 26 26 26 26 26 26 26 26 26 26 26 26 26 26 26 26 26 26 26 26 26 26 26 27 27 27 27 27 27 27 27 27 28 28 28 28 28 28 28 28 28 28 28 28 28 29 29 29 29 29 29 29 29 29 28 28 28 28 28 28 28 28 28 28 28 28 28 28 28 28 28 28 28 28 28 28 28 29 30 31 31 32 32 33 33 33 33 33 34 34 34 34 34 34 34 33 33 33 33 33 33 33 33 33 33 33 33 33 33 33 33 33 33 32 32 32 32 32 32 32 32 32 32 32 32 32 32 32 32 32 32 32 32 32 32 32 32 32 32 33 33 34 35 36 37 37 38 39 41 42 43 44 45 45 46 46 46 46 47 47 47 47 47 46 45 44 43 42 41 40 39 38 37 36 36 36 36 36 36 36 36 36 36 36 36 36 36 36 36 36 36 36 36 36 36 36 36 36 36 36 36 36 37 37 37 37 37 38 38 39 39 40 41 42 42 43 44 44 45 46 46 47 48 48 49 49 50 51 52 52 53 54 54 55 55 56 56 57 57 58 58 59 59 59 59 59 59 59 58 58 58 58 57 58 58 58 58 59 59 58 58 57 56 55 54 54 53 52 52 51 50 49 48 48 46 45 45 44 44 45 48 51 54 56 58 58 58 58 59 59 59 59 59 59 60 60 60 61 60 58 56 53 50 48 46 46 47 47 48 48 49 49 49 50 50 51 52 52 53 53 53 52 51 49 47 44 42 40 39 38 38 39 40 41 43 45 46 47 47 47 47 45 43 41 38 36 33 31 29 28 28 28 29 30 30 31 31 31 32 33 33 33 32 30 28 25 22 21 20 20 20 20 21 23 24 25 27 30 32 33 33 32 31 30 29 28 28 28 28 29 29 30 30 30 29 29 28 28 28 29 30 31 31 31 31 31 31 31 31 31 31 32 32 34 36 36 35 32 28 26 23 20 17 15 13 14 14 14 14 15 16 18 20 22 23 25 26 26 26 25 24 19 16 14 12 12 13 13 13 14 14 14 14 14 14 14 14 14 14 14 14 15 15 15 15 16 16 16 16 16 17 17 17 17 17 17 17 17 17 17 17 17 17 17 17 17 17 16 16 16 16 16 17 16 15 12 10 10 10 10 10 10 10 10 10 10 10 10 10 10 10 11 11 12 13 14 14 15 16 15 15 15 15 15 15 15 15 15 16 17 18 19 19 19 18 15 14 13 12 11 9 9 9 9 9 9 9 9 9 9 9 9 9 8 9 11 15 21 26 26 26 26 26 26 26 26 25 25 25 25 24 24 24 24 24 24 24 24 24 24 24 24 24 24 24 24 24 24 23 22 20 19 18 18 17 17 16 16 16 16 17 17 16 16 16 16 16 16 16 16 16 16 16 16 16 16 16 16 16 16 16 16 16 16 16 16 16 16 16 16 16 16 16 16 16 16 16 16 16 16 16 16 16 16 16 16 16 16 15 15 15 15 15 15 15 15 15 15 15 15 15 15 14 14 14 14 14 14 14 14 14 14 14 14 14 14 14 14 13 13 13 12 12 12 12 12 12 11 11 11 11 11 11 11 11 11 11 11 12 12 12 12 12 12 12 12 12 12 12 12 12 12 12 12 12 12 12 12 11 11 11 11 11 11 11 11 11 11 11 11 11 11 11 11 11 11 11 11 11 11 11 11 11 11 11 11 11 11 11 11 11 11 11 11 11 11 11 11 11 11 11 11 11 11 11 11 11 11 11 10 10 10 10 10 10 9 9 9 8 8 9 9 9 9 9 9 9 9 9 9 9 9 9 8 8 8 8.849602
15 15 15 16 16 16 17 17 17 17 17 18 18 18 18 18 18 18 17 17 17 17 17 18 18 18 18 18 18 18 18 18 18 18 18 18 18 18 18 18 19 19 19 18 18 18 17 17 17 16 16 16 16 16 17 17 17 18 18 18 19 19 19 19 19 19 19 19 18 19 19 19 19 19 19 19 18 17 16 15 14 14 14 14 13 13 13 13 13 14 14 15 16 17 18 19 19 19 19 19 19 19 19 19 20 20 20 20 20 20 20 20 20 20 20 20 20 20 20 20 20 20 20 20 20 20 20 20 20 20 20 20 20 20 20 20 20 20 20 20 20 20 20 20 20 20 20 20 21 21 21 21 21 21 21 22 22 22 22 22 22 22 23 23 23 23 23 23 23 23 23 23 23 23 23 23 23 23 23 23 23 23 23 23 23 23 23 24 24 24 24 24 24 24 24 24 23 24 24 24 24 24 25 25 25 25 25 25 25 25 25 25 25 25 25 25 25 25 25 26 26 26 26 26 26 26 26 26 26 26 26 26 26 26 26 26 26 26 26 26 26 26 26 26 26 26 27 27 27 27 27 27 27 27 27 28 28 28 28 28 28 28 28 28 28 28 29 29 29 29 29 29 29 29 29 29 29 29 29 29 29 29 29 28 28 28 28 28 28 28 28 28 28 28 28 28 28 28 28 29 29 30 31 32 32 33 33 33 33 33 34 34 34 34 34 34 34 34 34 33 33 33 33 33 33 33 33 33 33 33 33 33 33 33 33 33 33 32 32 32 32 32 32 32 32 32 32 32 32 32 32 32 32 32 32 32 32 32 32 32 32 32 33 33 34 35 36 37 38 39 40 41 42 43 44 45 45 46 46 46 47 47 47 47 47 47 46 45 44 43 42 41 40 39 38 37 36 36 36 36 36 36 36 36 36 36 36 36 36 36 36 36 36 36 36 36 36 36 36 36 36 36 36 36 36 37 37 37 37 38 38 38 39 40 40 41 42 43 43 44 45 45 46 47 48 48 48 49 49 50 51 51 52 53 54 54 55 55 56 56 56 57 57 58 58 58 59 59 59 58 58 58 58 58 58 58 58 58 59 59 59 59 59 58 57 56 55 55 54 54 53 52 51 51 50 49 48 47 46 45 44 44 45 47 51 54 56 58 58 59 59 59 59 59 59 60 60 60 61 61 61 60 57 54 50 47 45 44 44 45 46 46 47 48 48 48 48 49 49 50 50 50 50 50 50 49 47 45 43 41 39 38 38 38 38 39 41 42 44 45 47 47 47 47 45 43 40 38 35 32 30 29 28 27 28 28 29 30 30 31 32 32 33 34 34 33 31 29 25 23 21 20 20 20 20 21 23 24 26 28 31 33 34 34 33 33 32 31 30 30 29 30 30 30 31 31 30 30 29 28 28 28 29 30 30 31 31 31 31 31 31 31 31 31 31 32 34 35 36 35 31 28 26 23 19 16 14 13 13 14 14 14 15 16 17 18 19 20 21 22 22 23 23 22 18 16 14 12 12 13 13 13 13 14 14 14 14 14 14 14 14 14 14 14 14 15 15 15 16 16 16 16 16 16 17 17 17 17 17 17 17 17 17 17 17 17 17 17 17 17 16 16 16 16 16 17 16 15 13 11 10 10 10 10 10 10 10 10 10 10 10 10 10 10 11 11 12 13 13 14 15 15 15 15 15 15 15 15 15 15 15 15 16 17 18 18 17 16 15 13 13 12 11 9 9 9 9 9 9 9 9 9 9 9 9 9 8 9 11 14 20 25 25 25 25 25 26 26 26 25 25 25 24 24 24 24 24 24 24 24 24 24 24 24 24 24 24 24 24 24 23 22 21 19 19 18 17 17 17 16 16 16 16 16 16 16 16 16 16 16 16 16 16 16 16 16 16 16 16 16 16 16 16 16 16 16 16 16 16 16 16 16 16 16 16 16 16 16 16 16 16 16 16 16 16 16 16 16 15 15 15 15 15 15 15 15 15 15 15 15 14 14 14 14 14 14 14 14 14 14 14 14 14 14 14 14 14 14 14 14 13 13 13 12 12 12 12 12 12 11 11 11 11 11 11 11 11 11 11 11 11 12 12 12 12 12 12 12 12 12 12 12 12 12 12 12 12 12 12 12 11 11 11 11 11 11 11 11 11 11 11 11 11 11 11 11 11 11 11 11 11 11 11 11 11 11 11 11 11 11 11 11 11 11 11 11 11 11 11 11 11 11 11 11 11 11 11 11 11 11 11 11 10 10 10 10 10 9 9 9 9 8 8 9 9 9 9 9 9 9 9 9 9 8 8 8 8 8 8 8.825826
15 15 15 16 16 16 17 17 17 17 17 18 18 18 18 18 18 17 17 17 17 17 17 17 18 18 18 18 18 18 18 18 18 18 18 18 18 18 19 19 19 19 18 18 17 16 16 15 14 14 13 13 13 13 14 15 15 16 17 18 18 19 19 19 19 19 18 18 18 18 19 19 19 19 18 16 15 13 11 10 9 9 9 8 8 8 8 8 8 8 8 10 11 13 16 17 18 19 19 19 19 19 19 19 19 19 20 20 20 20 20 20 20 20 20 20 20 20 20 20 20 20 20 20 20 20 20 20 20 20 20 20 20 20 20 20 20 20 20 20 20 20 20 20 20 20 20 20 20 21 21 21 21 21 21 22 22 22 22 22 22 22 22 23 23 23 23 23 23 23 23 23 23 23 23 23 23 23 23 23 23 23 23 23 23 23 23 24 24 24 24 24 24 24 24 23 23 24 24 24 24 24 25 25 25 25 25 25 25 25 25 25 25 25 25 25 25 25 25 26 26 26 26 26 26 26 26 26 26 26 26 26 26 26 26 26 26 26 26 26 26 26 26 26 26 27 27 27 27 27 27 27 27 27 27 28 28 28 28 28 28 28 28 29 29 29 29 29 29 29 29 29 29 29 29 29 29 29 29 29 29 29 29 29 29 29 28 28 28 28 28 28 28 28 28 28 28 28 29 29 30 30 31 32 32 33 33 33 33 34 34 34 34 34 34 34 34 34 34 33 33 33 33 33 33 33 33 33 33 33 33 33 33 33 33 33 33 33 32 32 32 32 32 32 32 32 32 32 32 32 32 32 32 32 32 32 32 32 32 32 32 32 33 34 35 36 37 38 38 39 40 41 43 44 44 45 45 46 46 46 47 47 47 47 47 47 46 45 44 43 42 41 40 39 38 37 36 36 36 36 36 36 36 36 36 36 36 36 36 36 36 36 36 36 36 36 36 36 36 36 36 36 36 36 36 37 37 37 37 38 38 39 39 40 41 41 42 43 43 44 45 46 47 47 48 49 49 49 49 50 51 51 52 53 54 54 55 55 55 56 56 56 57 57 57 58 58 58 58 58 58 58 57 58 58 58 59 59 59 60 60 60 59 59 57 56 56 55 54 54 53 53 52 52 51 50 49 47 46 45 44 44 45 47 50 53 56 58 58 59 59 59 59 60 60 60 60 61 61 61 61 59 56 53 48 45 43 42 42 43 44 45 46 46 47 47 47 48 48 48 48 47 47 47 47 46 45 43 41 40 38 38 37 37 38 39 40 42 43 45 46 47 47 47 45 42 40 37 34 32 30 28 28 27 27 28 28 29 30 31 32 33 34 35 35 34 32 29 26 23 21 20 20 20 20 21 23 25 27 29 32 34 35 35 35 34 33 32 32 31 31 31 31 32 32 32 31 30 29 28 28 28 29 30 30 31 31 31 31 31 31 31 31 31 31 32 34 35 35 34 31 27 25 22 19 16 14 13 13 13 14 14 15 15 16 17 17 18 18 18 18 19 20 20 17 15 13 12 12 12 13 13 13 14 14 14 14 14 14 14 14 14 14 14 14 15 15 15 16 16 16 16 16 16 16 16 16 16 16 16 16 16 16 16 16 16 17 17 17 17 17 16 16 16 16 16 16 15 13 11 10 10 10 10 10 10 10 10 10 10 10 10 10 10 11 11 12 13 13 14 15 15 15 15 15 15 15 15 15 14 15 15 16 16 17 17 16 15 14 12 12 12 10 9 9 9 9 9 9 9 9 9 9 9 9 9 8 9 10 13 20 24 25 25 25 25 25 25 25 25 25 24 24 24 24 24 24 24 24 24 24 24 24 24 24 24 24 24 23 23 22 21 20 19 18 17 17 16 16 16 16 16 16 16 16 16 16 16 16 16 16 16 16 16 16 16 16 16 16 16 16 16 16 16 16 16 16 16 16 16 16 16 17 17 16 16 16 16 16 16 16 16 16 16 16 15 15 15 15 15 15 15 15 15 15 15 15 15 14 14 14 14 14 14 14 14 14 14 14 14 14 14 14 14 14 14 14 14 14 13 13 13 12 12 12 12 12 12 11 11 11 11 11 11 11 11 11 11 11 11 11 11 11 11 12 12 12 12 12 12 12 12 12 12 12 12 12 12 12 11 11 11 11 11 11 11 11 11 11 11 11 11 11 11 11 11 11 11 11 11 11 11 11 11 11 11 11 11 11 11 11 11 11 11 11 11 11 11 11 11 11 11 11 11 11 11 11 11 11 11 11 11 10 10 10 10 9 9 9 9 8 8 8 9 9 8 9 9 9 9 9 9 9 8 8 8 8 8 8 8.80205
15 15 15 16 16 16 16 17 17 17 17 17 18 18 18 18 18 17 17 17 17 17 17 18 18 18 18 18 18 18 18 18 18 18 18 18 18 18 18 18 17 16 16 15 14 13 12 12 11 11 11 11 11 11 11 12 13 14 15 16 17 18 18 18 19 18 18 18 18 18 18 18 17 16 15 14 12 11 10 9 9 9 9 8 8 8 8 8 8 8 8 9 10 11 13 14 16 17 18 18 18 18 19 19 19 19 19 19 19 20 20 20 20 20 20 20 20 20 20 20 20 20 20 20 20 20 20 20 20 20 20 20 20 20 20 20 20 20 20 20 20 20 20 20 20 20 20 20 21 21 21 21 21 21 21 22 22 22 22 22 22 22 22 23 23 23 23 23 23 23 23 23 23 23 23 23 23 23 23 23 23 23 23 23 24 24 24 24 24 24 24 24 24 24 24 24 24 24 24 24 24 24 25 25 25 25 25 25 25 25 25 25 25 25 25 25 25 25 25 25 26 26 26 26 26 26 26 26 26 26 26 26 26 26 26 26 26 26 26 26 26 26 26 26 26 27 27 27 27 27 27 27 27 27 27 28 28 28 28 28 28 28 29 29 29 29 29 29 29 29 29 29 29 29 29 29 29 29 29 29 29 29 29 29 29 29 29 29 28 28 28 28 28 28 29 29 29 29 29 29 30 31 31 32 33 33 33 33 33 33 34 34 34 34 34 34 34 34 34 33 33 33 33 33 33 33 33 33 33 33 33 33 33 33 33 33 33 33 33 33 32 32 32 32 32 32 32 32 32 32 32 32 32 32 32 32 32 32 32 32 32 32 33 34 35 36 37 38 39 40 41 42 43 44 44 45 45 46 46 46 47 47 47 47 47 47 46 45 44 43 42 41 40 39 38 37 37 36 36 36 36 36 36 36 36 36 36 36 36 36 36 36 36 36 35 35 35 36 36 36 36 36 36 36 37 37 37 37 38 38 38 39 39 40 41 42 42 43 43 44 45 46 46 47 48 48 49 49 49 49 50 51 52 52 53 54 54 55 55 56 57 57 58 59 59 59 59 59 59 59 59 59 59 58 58 57 56 55 55 54 53 52 51 50 49 49 48 48 49 49 50 50 51 51 51 50 49 48 46 45 44 44 45 47 50 53 55 57 58 59 59 59 60 60 60 60 61 61 61 61 61 59 55 51 47 44 42 41 42 43 44 45 45 46 46 47 47 47 47 47 46 46 46 45 45 44 43 42 40 39 38 37 37 37 37 38 39 41 43 45 46 47 47 47 44 42 39 36 34 31 29 28 27 27 27 28 28 29 30 31 32 33 35 36 36 35 33 30 26 23 21 20 20 20 20 21 23 25 27 30 32 34 35 36 35 35 34 33 33 32 32 32 32 32 32 32 31 31 30 29 28 28 29 29 30 31 31 31 31 31 31 31 31 31 31 32 33 34 35 34 30 27 25 22 19 16 14 13 13 13 14 14 15 15 16 17 17 17 17 17 17 18 19 19 17 15 13 12 12 12 13 13 13 13 14 14 14 14 14 14 14 14 14 14 14 15 15 15 16 16 16 16 16 16 16 16 16 16 16 16 16 16 16 17 17 17 17 17 17 17 17 16 16 16 16 16 16 15 13 11 10 10 10 10 10 10 10 10 10 10 10 10 10 10 11 11 12 13 13 14 15 15 15 15 15 15 15 15 14 14 14 15 15 16 16 16 15 14 13 12 12 11 10 9 9 9 9 9 9 9 9 9 9 9 9 9 8 9 10 13 19 24 24 25 25 25 25 25 25 25 24 24 24 24 24 24 24 24 24 24 24 24 24 24 24 24 23 23 23 22 21 20 19 18 17 17 16 16 16 16 16 16 16 16 16 16 16 16 16 16 16 16 16 16 16 16 16 16 16 16 16 16 16 16 16 16 16 16 16 17 17 17 17 17 16 16 16 16 16 15 15 15 15 15 15 15 15 15 15 15 14 14 14 14 14 14 14 14 14 14 14 14 14 14 14 14 14 14 14 13 14 14 14 14 14 14 14 13 13 13 13 12 12 12 12 12 12 11 11 11 11 11 11 11 11 11 11 11 11 11 11 11 11 11 12 12 11 11 12 12 12 12 12 12 12 12 12 12 12 11 11 11 11 11 11 11 11 11 11 11 11 11 11 11 11 11 11 11 11 11 11 11 11 11 11 11 11 11 11 11 11 11 11 11 11 11 11 11 11 11 11 11 11 11 11 11 11 11 11 11 11 10 10 10 10 10 9 9 9 8 8 8 8 8 8 8 9 9 9 9 9 9 8 8 8 8 8 8 8 8.796874
15 15 15 16 16 16 16 17 17 17 17 17 17 17 18 17 17 17 17 17 17 17 18 18 18 18 18 18 18 18 18 18 18 18 18 18 18 18 18 17 16 14 13 11 10 10 9 9 9 9 8 8 8 9 9 9 10 11 12 14 16 17 18 18 18 18 18 18 18 18 17 16 16 14 13 11 10 9 9 9 9 9 9 9 8 8 8 8 8 8 8 8 8 9 10 12 14 15 17 17 18 18 18 18 18 19 19 19 19 19 20 20 20 20 20 20 20 20 20 20 20 20 20 20 20 20 20 20 20 20 20 20 20 20 20 20 20 20 20 20 20 20 20 20 20 20 20 20 21 21 21 21 21 21 21 22 22 22 22 22 22 22 22 23 23 23 23 23 23 23 23 23 23 23 23 23 23 23 23 23 23 23 24 24 24 24 24 24 24 24 24 24 24 24 24 24 24 24 24 24 24 24 25 25 25 25 25 25 25 25 25 25 25 25 25 25 25 25 25 25 26 26 26 26 26 26 26 26 26 26 26 26 26 26 26 26 26 26 26 26 26 26 26 26 26 27 27 27 27 27 27 27 27 27 28 28 28 28 28 28 28 29 29 29 29 29 29 29 29 29 29 29 29 29 29 29 29 29 29 29 29 29 29 29 29 29 29 29 29 29 29 29 29 29 29 29 29 29 29 29 30 31 32 32 33 33 33 33 33 33 33 34 34 34 34 34 34 34 34 34 33 33 33 33 33 33 33 33 33 33 33 33 33 33 33 33 33 33 33 33 33 33 33 33 33 33 33 33 33 33 32 32 32 32 32 32 32 32 32 32 32 32 33 34 35 37 38 39 40 40 41 42 43 44 44 45 45 46 46 46 47 47 47 47 47 47 46 45 44 43 42 41 40 39 38 37 37 36 36 36 36 36 36 36 36 36 36 36 36 36 36 36 36 35 35 35 35 35 36 36 36 36 36 37 37 37 37 38 38 38 39 39 40 40 41 42 42 43 43 44 45 45 46 47 48 48 48 48 49 49 49 50 51 52 52 53 54 55 56 57 58 59 59 60 61 61 61 61 61 61 60 60 60 59 58 56 54 52 50 48 46 45 43 42 41 41 41 42 43 44 46 48 49 50 51 50 49 48 47 45 45 44 45 46 49 52 55 57 58 59 59 59 60 60 60 61 61 61 61 61 60 58 54 50 45 42 41 41 41 42 43 44 45 45 46 46 46 46 46 46 45 45 44 44 43 43 42 40 39 38 37 36 36 36 37 38 39 40 42 44 46 47 47 46 44 42 39 36 33 31 29 28 27 27 27 27 28 29 30 31 32 34 36 37 37 37 34 31 27 23 22 20 20 20 20 21 23 25 28 30 33 35 36 37 36 36 35 34 34 33 33 33 33 33 33 32 32 31 30 29 28 28 29 29 30 30 31 31 31 31 31 31 31 31 31 32 33 33 34 33 30 27 25 22 18 16 14 14 13 13 14 14 14 15 16 16 16 16 16 16 16 17 18 18 17 15 14 12 12 12 13 13 13 13 13 13 14 14 14 14 14 14 14 14 14 15 15 15 16 16 16 16 16 16 16 16 16 16 16 16 16 16 16 17 17 17 17 17 17 17 17 16 16 16 16 17 16 15 13 11 10 10 10 10 10 10 10 10 10 10 10 10 10 10 11 11 12 13 13 14 14 15 15 15 15 15 14 14 14 14 14 14 15 15 15 15 15 14 13 12 12 11 10 9 9 9 9 9 9 9 9 9 9 9 9 9 8 9 10 12 18 23 24 24 24 24 25 25 25 24 24 24 24 24 24 24 24 24 24 24 24 24 24 23 23 23 23 23 22 22 20 19 18 17 17 16 16 16 16 16 16 16 16 16 16 16 16 16 16 16 16 16 16 16 16 16 16 16 16 16 16 16 16 16 16 16 16 16 16 17 17 17 17 17 16 16 16 15 15 15 15 14 14 14 14 14 14 14 14 14 14 14 14 14 14 14 14 14 14 14 14 14 13 13 13 13 13 13 13 13 13 13 13 13 13 13 13 13 13 12 12 12 12 12 12 11 11 11 11 11 11 11 11 11 11 11 11 11 11 11 11 11 11 11 11 11 11 11 11 11 11 11 11 11 11 12 12 12 12 11 11 11 11 11 11 11 11 11 11 11 11 11 11 11 11 11 11 11 11 11 11 11 11 11 11 11 11 11 11 11 11 11 11 11 11 11 11 11 11 11 11 11 11 11 11 11 11 11 11 11 11 10 10 10 10 9 9 9 8 8 8 8 8 8 8 8 9 9 9 9 9 8 8 8 8 8 8 8 8 8.791698
14 15 15 16 16 16 16 16 16 17 17 17 17 17 17 17 17 17 17 17 17 17 17 17 17 18 18 17 17 17 17 17 17 16 16 16 16 15 15 14 13 12 11 10 9 9 9 9 9 9 9 9 9 9 9 9 9 10 11 12 13 14 15 15 16 16 16 16 16 15 15 14 14 12 11 10 9 9 9 9 9 9 9 9 9 8 8 8 8 8 8 8 8 8 9 10 12 13 15 16 17 17 18 18 19 19 19 19 19 19 20 20 20 20 20 20 20 20 20 20 20 20 20 20 20 20 20 20 20 20 20 20 20 20 20 20 20 20 20 20 20 20 20 20 20 20 20 20 21 21 21 21 21 21 22 22 22 22 22 22 22 22 23 23 23 23 23 23 23 23 23 23 23 23 23 23 23 23 23 23 23 24 24 24 24 24 24 24 24 24 24 24 24 24 24 24 24 24 24 24 24 24 25 25 25 25 25 25 25 25 25 25 25 25 25 25 25 25 25 25 26 26 26 26 26 26 26 26 26 26 26 26 26 26 26 26 26 26 26 26 26 26 26 26 26 27 27 27 27 27 27 27 27 27 28 28 28 28 28 28 29 29 29 29 29 29 29 29 29 29 29 29 29 29 29 29 29 29 29 29 29 29 29 29 29 29 29 29 29 29 29 29 29 29 29 29 29 29 29 30 30 31 32 32 32 33 33 33 33 33 33 33 34 34 34 34 34 34 34 34 33 33 33 33 33 33 33 33 33 33 33 33 33 33 33 33 33 33 33 33 33 33 33 33 33 33 33 33 33 33 33 33 33 33 32 32 32 32 32 32 32 32 33 34 36 37 39 40 41 41 42 43 44 44 45 45 45 46 46 46 47 47 47 47 47 47 46 45 45 44 42 41 41 40 39 38 37 37 37 36 36 36 36 36 36 36 36 36 36 36 36 36 36 36 36 36 36 36 36 36 36 36 36 37 37 37 37 38 38 38 39 39 40 40 41 42 42 43 43 44 45 46 47 48 49 49 49 49 48 48 48 49 49 50 50 51 51 52 52 52 53 53 53 53 52 52 51 50 49 48 48 47 46 45 44 43 41 40 39 38 37 37 36 36 36 36 37 38 39 40 42 44 46 48 49 50 49 48 47 46 45 45 45 46 49 51 54 56 58 59 59 60 60 60 61 61 61 61 61 61 60 57 53 49 45 42 41 41 41 42 43 44 45 45 46 46 46 46 46 46 45 45 44 43 43 42 41 40 38 37 36 36 36 36 36 37 38 40 42 44 45 46 47 46 44 41 38 35 33 31 29 28 28 27 27 28 28 29 29 31 32 34 36 38 38 38 35 32 27 23 22 20 20 20 20 21 23 25 28 31 33 35 36 37 36 36 35 34 34 33 33 33 33 33 33 32 32 31 30 29 29 28 29 29 30 30 31 31 31 31 31 31 31 31 31 31 32 33 33 33 30 27 25 22 19 16 15 14 14 14 14 14 14 15 16 16 16 16 16 16 16 17 18 18 17 16 14 12 12 12 12 13 13 13 13 13 14 14 14 14 14 14 14 14 14 15 15 15 16 16 16 16 16 16 16 16 16 16 16 16 16 16 16 17 17 17 17 17 17 17 17 17 16 16 16 17 16 16 13 11 10 10 10 10 10 10 10 10 10 10 10 10 10 10 11 11 12 13 13 14 14 15 15 15 15 14 14 14 14 14 14 14 14 14 15 15 14 14 13 12 11 11 10 9 9 9 9 9 9 9 9 9 9 9 9 9 8 9 10 12 18 22 23 24 24 24 24 24 24 24 24 24 24 24 24 24 24 24 24 24 24 23 23 23 23 23 23 23 22 21 19 18 18 17 17 16 16 16 16 16 16 16 16 16 16 16 16 16 16 16 16 16 16 16 16 16 16 16 16 16 16 16 16 16 16 16 16 16 16 16 16 16 16 15 15 15 14 14 14 14 14 14 13 13 13 13 13 13 13 13 13 13 13 13 13 13 13 13 13 13 13 13 13 13 13 13 13 13 13 13 13 13 13 13 13 13 13 13 13 12 12 12 12 11 11 11 11 11 11 11 11 11 11 11 11 11 11 11 11 11 11 11 11 11 11 12 11 11 11 11 11 11 11 11 11 12 12 12 12 12 11 11 11 11 11 11 11 11 11 11 11 11 11 11 11 11 11 11 11 11 11 11 11 11 11 11 11 11 11 11 11 11 11 11 11 11 11 11 11 11 11 11 11 11 11 11 11 11 11 11 11 10 10 10 9 9 9 8 8 8 8 8 8 8 8 8 9 9 9 9 9 8 8 8 8 8 8 8 8 8.800987
14 15 15 15 15 15 16 16 16 16 17 17 17 17 17 17 17 17 17 17 17 17 17 17 17 17 17 17 16 16 16 15 15 14 14 13 13 12 11 11 10 9 9 9 8 8 8 9 9 9 9 9 9 9 9 9 9 9 9 10 10 11 12 12 13 13 13 13 13 13 13 12 12 11 10 10 9 9 9 9 9 9 9 9 9 8 8 8 8 8 8 8 8 8 8 9 10 11 13 14 16 17 18 18 19 19 19 19 19 19 19 20 20 20 20 20 20 20 20 20 20 20 20 20 20 20 20 20 20 20 20 20 20 20 20 20 20 20 20 20 20 20 20 20 20 20 20 21 21 21 21 21 21 21 22 22 22 22 22 22 22 23 23 23 23 23 23 23 23 23 23 23 23 23 23 23 23 23 23 23 24 24 24 24 24 24 24 24 24 24 24 24 24 24 24 24 24 24 24 24 24 25 25 25 25 25 25 25 25 25 25 25 25 25 25 25 25 25 25 25 26 26 26 26 26 26 26 26 26 26 26 26 26 26 26 26 26 26 26 26 26 26 26 26 26 27 27 27 27 27 27 27 27 28 28 28 28 28 28 28 29 29 29 29 29 29 29 29 29 29 29 29 29 29 29 29 29 29 29 29 29 29 29 29 29 29 29 29 29 29 29 29 29 29 29 29 29 29 29 30 30 31 32 32 32 32 33 33 33 33 33 33 33 34 34 34 34 34 34 34 34 33 33 33 33 33 33 33 33 33 33 33 33 34 34 34 34 34 34 33 33 33 33 33 33 33 33 33 33 33 33 33 33 33 33 33 32 32 32 32 32 33 33 35 36 38 40 41 42 42 43 44 44 45 45 45 46 46 46 47 47 47 47 47 47 47 46 46 45 44 43 42 41 40 39 39 38 37 37 37 37 37 37 37 37 37 37 37 37 36 36 36 36 36 36 36 36 36 36 36 36 36 37 37 37 37 37 38 38 38 39 39 40 40 41 42 42 43 43 44 45 46 48 49 50 50 50 49 48 47 47 47 47 47 48 48 48 48 48 48 48 47 47 45 44 42 40 39 37 36 35 34 33 32 31 30 29 28 28 28 28 29 29 30 31 32 33 34 35 36 38 40 43 45 48 49 49 48 47 46 45 45 45 46 48 51 54 56 58 59 59 60 60 60 61 61 61 61 61 61 59 57 53 49 45 42 41 41 41 42 43 44 45 45 46 46 47 47 46 46 45 45 44 43 42 41 40 39 38 37 36 35 35 35 36 36 38 39 41 43 45 46 47 46 43 41 38 35 33 31 29 28 28 28 28 28 28 29 29 30 32 34 37 38 39 38 36 32 27 23 22 20 20 20 20 21 23 25 28 31 34 36 37 37 37 36 35 35 34 34 33 33 33 33 33 32 32 31 30 29 29 29 29 29 30 30 30 31 31 31 31 31 31 31 31 31 31 32 33 32 30 27 25 22 19 16 15 14 14 14 14 14 14 15 15 16 15 15 15 15 16 16 17 18 17 16 14 12 12 12 12 13 13 13 13 13 14 14 14 14 14 14 14 14 14 15 15 15 16 16 16 16 16 16 16 16 16 16 16 16 16 16 16 17 17 17 17 17 17 17 17 17 16 16 17 17 16 16 13 11 10 10 10 10 10 10 10 10 10 10 10 10 10 10 11 11 12 13 13 14 14 15 15 15 15 14 14 14 14 14 14 14 14 14 14 15 14 14 13 12 11 11 10 9 9 9 9 9 9 9 9 9 9 9 9 9 8 9 10 12 17 22 23 24 24 24 24 24 24 24 24 24 24 24 24 24 24 24 24 23 23 23 23 23 23 23 23 23 21 20 19 18 17 16 16 16 16 16 16 16 16 16 16 16 16 16 16 16 16 16 16 16 16 16 16 16 16 16 16 16 16 16 16 16 16 16 16 16 16 16 16 15 15 14 14 13 13 13 13 13 13 13 13 13 13 13 13 13 13 13 13 13 13 13 13 13 13 13 13 13 13 13 13 13 13 13 13 13 13 13 13 13 13 13 13 13 13 12 12 12 12 12 11 11 11 11 11 11 11 11 11 11 11 11 11 11 11 11 11 11 11 11 11 11 11 12 11 11 11 11 11 11 11 11 12 12 12 12 12 12 11 11 11 11 11 11 11 11 11 11 11 11 11 11 11 11 11 11 11 11 11 11 11 11 11 11 11 11 11 11 11 11 11 11 11 11 11 11 11 11 11 11 11 11 11 11 11 11 11 11 10 10 10 9 9 9 8 8 8 8 8 8 8 8 8 9 9 9 9 9 9 9 8 8 8 8 8 8 8 8.810274
13 13 14 14 14 14 14 14 14 14 14 14 14 14 14 14 14 14 14 14 13 13 13 13 13 13 13 13 12 12 12 12 11 11 11 11 10 10 10 9 9 9 8 8 8 8 8 8 8 9 9 9 9 9 9 9 9 9 9 9 9 10 10 10 11 11 11 11 11 11 11 11 11 10 10 9 9 9 9 9 9 9 9 9 9 9 8 8 8 8 8 8 8 8 8 9 9 10 10 11 12 13 14 15 17 17 18 19 19 19 19 20 20 20 20 20 20 20 20 20 20 20 20 20 20 20 20 20 20 20 20 20 20 20 20 20 20 20 20 20 20 20 20 20 20 20 20 21 21 21 21 21 21 21 22 22 22 22 22 22 22 22 23 23 23 23 23 23 23 23 23 23 23 23 23 23 23 23 23 23 24 24 24 24 24 24 24 24 24 24 24 24 24 24 24 24 24 24 24 24 24 24 25 25 25 25 25 25 25 25 25 25 25 25 25 25 25 25 25 25 26 26 26 26 26 26 26 26 26 26 26 26 26 26 26 26 26 26 26 26 26 26 26 26 26 27 27 27 27 27 27 27 27 28 28 28 28 28 28 29 29 29 29 29 29 29 29 29 29 29 29 29 29 30 30 30 30 30 29 29 30 30 30 29 29 29 29 29 29 29 29 29 29 29 29 29 29 29 29 30 30 31 31 32 32 32 32 33 33 33 33 33 33 33 33 34 34 34 34 34 33 33 33 33 33 33 33 33 33 34 34 34 34 34 34 34 34 34 34 34 34 34 33 33 33 33 33 33 33 33 33 33 33 33 33 33 33 32 32 32 32 33 33 35 37 39 40 41 42 43 44 44 45 45 45 45 46 46 46 46 47 47 47 47 47 46 46 45 45 44 43 42 41 41 40 39 38 38 38 37 37 37 37 37 37 37 37 37 37 37 37 37 37 36 36 36 36 36 37 37 37 37 37 37 37 37 38 38 38 39 39 40 40 41 41 42 43 43 44 44 45 46 46 46 45 44 41 39 37 36 35 35 35 35 35 35 35 35 35 34 34 34 33 32 32 31 30 29 29 28 28 28 27 27 27 27 26 26 26 26 27 27 28 29 30 31 32 33 34 36 37 39 41 43 46 47 48 48 47 46 45 45 45 46 48 50 53 56 57 58 59 59 60 60 60 60 60 60 60 60 58 56 52 49 45 42 41 40 41 41 43 44 45 46 46 47 47 47 47 46 46 45 44 43 42 41 40 38 37 36 35 35 35 35 35 36 37 39 41 43 44 46 46 45 43 41 38 35 33 31 30 29 28 28 28 28 28 29 29 30 32 35 37 39 40 39 37 33 27 23 21 20 20 20 20 21 22 25 28 31 33 35 36 37 36 36 35 34 34 33 33 33 33 33 32 32 32 31 30 29 29 28 29 29 29 30 30 30 30 31 31 31 31 31 30 31 31 31 32 31 29 27 24 22 19 16 15 14 14 14 14 14 14 15 15 15 15 15 15 15 15 16 17 17 17 16 14 12 12 12 12 13 13 13 13 13 14 14 14 14 14 14 14 14 14 15 15 16 16 16 16 16 16 16 16 16 16 16 16 16 16 16 17 17 17 17 17 17 17 17 17 17 17 16 17 17 16 16 13 11 11 10 10 10 10 10 10 10 10 10 10 10 10 10 11 11 12 12 13 14 14 15 15 15 14 14 14 14 14 14 14 14 14 14 14 14 14 14 13 12 11 10 10 9 9 9 9 9 9 9 9 9 9 9 9 9 8 9 10 12 17 21 23 24 24 23 24 24 24 24 24 24 24 24 24 24 24 23 23 23 23 23 23 23 23 23 23 22 20 19 18 17 17 16 16 16 16 16 16 16 16 16 16 16 16 16 16 16 16 16 16 16 16 16 16 16 16 16 16 16 16 16 16 16 16 16 16 16 15 15 15 14 14 13 13 13 13 13 13 13 13 13 13 13 13 13 13 13 13 13 13 13 13 13 13 13 13 13 13 13 13 13 13 13 13 13 13 13 13 13 13 13 13 13 13 13 13 12 12 12 12 12 11 11 11 11 11 11 11 11 11 11 11 11 11 11 11 11 11 11 11 11 11 11 11 12 11 11 11 11 11 12 12 12 12 12 12 12 12 12 12 11 11 11 11 11 11 11 11 11 11 11 11 11 11 11 11 11 11 11 11 11 11 11 11 11 11 11 11 11 11 11 11 11 11 11 11 11 11 11 11 11 11 11 11 11 11 11 11 11 10 10 10 9 9 8 8 8 8 8 8 8 8 9 9 9 9 9 9 9 9 8 8 8 8 8 8 8 8 8.8236885
